ply
format ascii 1.0
element vertex 689
property float32 x
property float32 y
property float32 z
property uchar red
property uchar green
property uchar blue
end_header
0.1538144201040268 0.03486690670251846 0.6260000467300415 221 219 207
0.15460526943206787 0.03481120616197586 0.625 219 217 205
0.1556418538093567 0.03481120616197586 0.625 222 222 216
0.15642774105072021 0.034755509346723557 0.6240000128746033 139 139 133
0.15746267139911652 0.034755509346723557 0.6240000128746033 65 64 68
0.1582435965538025 0.03469981253147125 0.6230000257492065 73 72 76
0.15927685797214508 0.03469981253147125 0.6230000257492065 68 72 72
0.16056743264198303 0.034755509346723557 0.6240000128746033 66 70 70
0.16160233318805695 0.034755509346723557 0.6240000128746033 66 70 70
0.16263726353645325 0.034755509346723557 0.6240000128746033 66 70 70
0.16419677436351776 0.03486690670251846 0.6260000467300415 65 69 69
0.1652350127696991 0.03486690670251846 0.6260000467300415 66 70 70
0.16653886437416077 0.03492260351777077 0.6270000338554382 66 70 70
0.1675787717103958 0.03492260351777077 0.6270000338554382 66 70 70
0.16888757050037384 0.03497830033302307 0.628000020980835 66 70 70
0.1699291318655014 0.03497830033302307 0.628000020980835 66 70 70
0.17097067832946777 0.03497830033302307 0.628000020980835 66 72 72
0.17201223969459534 0.03497830033302307 0.628000020980835 66 72 72
0.1730538010597229 0.03497830033302307 0.628000020980835 64 70 70
0.17409533262252808 0.03497830033302307 0.628000020980835 63 69 69
0.17513689398765564 0.03497830033302307 0.628000020980835 64 70 70
0.176178440451622 0.03497830033302307 0.628000020980835 66 72 72
0.1766556203365326 0.03486690670251846 0.6260000467300415 66 72 72
0.17769385874271393 0.03486690670251846 0.6260000467300415 67 73 73
0.17816105484962463 0.034755509346723557 0.6240000128746033 68 74 74
0.17833444476127625 0.034588415175676346 0.6210000514984131 68 74 74
0.1793643981218338 0.034588415175676346 0.6210000514984131 76 76 76
0.1801038384437561 0.03453271463513374 0.6200000047683716 77 77 77
0.18113212287425995 0.03453271463513374 0.6200000047683716 85 85 79
0.1818666160106659 0.03447701781988144 0.6190000176429749 91 91 85
0.1823022961616516 0.03436562418937683 0.6170000433921814 95 89 82
0.1833256185054779 0.03436562418937683 0.6170000433921814 176 170 163
0.18375134468078613 0.034254226833581924 0.6150000095367432 231 226 216
0.1847713440656662 0.034254226833581924 0.6150000095367432 228 223 213
0.1854892373085022 0.03419853001832962 0.6140000224113464 229 224 214
0.18590007722377777 0.03408713638782501 0.612000048160553 229 224 214
0.1869150698184967 0.03408713638782501 0.612000048160553 231 224 214
0.18793009221553802 0.03408713638782501 0.612000048160553 232 225 215
0.18894511461257935 0.03408713638782501 0.612000048160553 234 224 215
0.18996013700962067 0.03408713638782501 0.612000048160553 234 224 215
0.19066308438777924 0.03403143584728241 0.6110000014305115 235 225 216
0.19167643785476685 0.03403143584728241 0.6110000014305115 233 223 214
0.19237442314624786 0.033975739032030106 0.6100000143051147 234 224 215
0.19338613748550415 0.033975739032030106 0.6100000143051147 235 225 216
0.19439783692359924 0.033975739032030106 0.6100000143051147 235 225 216
0.19540953636169434 0.033975739032030106 0.6100000143051147 235 225 216
0.19609923660755157 0.0339200384914875 0.609000027179718 235 226 215
0.19710926711559296 0.0339200384914875 0.609000027179718 235 226 215
0.19811931252479553 0.0339200384914875 0.609000027179718 236 227 216
0.1991293579339981 0.0339200384914875 0.609000027179718 235 226 215
0.20013940334320068 0.0339200384914875 0.609000027179718 235 226 215
0.20114944875240326 0.0339200384914875 0.609000027179718 235 226 215
0.20215949416160583 0.0339200384914875 0.609000027179718 234 228 216
0.20283590257167816 0.0338643416762352 0.6080000400543213 234 228 216
0.20384429395198822 0.0338643416762352 0.6080000400543213 234 228 216
0.2045157551765442 0.033808644860982895 0.6070000529289246 233 227 215
0.20552247762680054 0.033808644860982895 0.6070000529289246 233 226 216
0.20652921497821808 0.033808644860982895 0.6070000529289246 232 225 215
0.20753592252731323 0.033808644860982895 0.6070000529289246 226 222 215
0.20854264497756958 0.033808644860982895 0.6070000529289246 227 223 216
0.20954936742782593 0.033808644860982895 0.6070000529289246 194 191 188
0.21055610477924347 0.033808644860982895 0.6070000529289246 85 82 79
0.21156282722949982 0.033808644860982895 0.6070000529289246 79 75 76
0.21256954967975616 0.033808644860982895 0.6070000529289246 79 75 76
0.21392811834812164 0.0338643416762352 0.6080000400543213 72 76 76
0.2149364948272705 0.0338643416762352 0.6080000400543213 72 76 76
0.21594488620758057 0.0338643416762352 0.6080000400543213 69 74 77
0.21695327758789062 0.0338643416762352 0.6080000400543213 70 75 78
0.2179616540670395 0.0338643416762352 0.6080000400543213 70 75 78
0.21897003054618835 0.0338643416762352 0.6080000400543213 69 74 77
0.22034020721912384 0.0339200384914875 0.609000027179718 68 73 76
0.22135025262832642 0.0339200384914875 0.609000027179718 67 72 75
0.222360298037529 0.0339200384914875 0.609000027179718 67 72 75
0.22337034344673157 0.0339200384914875 0.609000027179718 67 72 75
0.22438038885593414 0.0339200384914875 0.609000027179718 68 73 76
0.22539041936397552 0.0339200384914875 0.609000027179718 68 73 76
0.2264004647731781 0.0339200384914875 0.609000027179718 69 74 77
0.22703708708286285 0.0338643416762352 0.6080000400543213 70 75 78
0.22767040133476257 0.033808644860982895 0.6070000529289246 71 77 77
0.22867713868618011 0.033808644860982895 0.6070000529289246 70 76 76
0.2293054312467575 0.03375294432044029 0.6060000061988831 71 77 77
0.23031049966812134 0.03375294432044029 0.6060000061988831 71 77 77
0.23093387484550476 0.03369724750518799 0.6050000190734863 72 78 78
0.23117054998874664 0.03358585387468338 0.6030000448226929 74 80 80
0.23217064142227173 0.03358585387468338 0.6030000448226929 75 80 83
0.23278406262397766 0.033530157059431076 0.6020000576972961 76 81 84
0.23378247022628784 0.033530157059431076 0.6020000576972961 78 83 86
0.23439088463783264 0.033474456518888474 0.6010000109672546 79 84 87
0.2349960058927536 0.03341875970363617 0.6000000238418579 90 89 93
0.23599113523960114 0.03341875970363617 0.6000000238418579 86 85 89
0.23619630932807922 0.03330736607313156 0.5980000495910645 159 159 160
0.2367914468050003 0.03325166553258896 0.597000002861023 232 232 233
0.2377815693616867 0.03325166553258896 0.597000002861023 227 226 223
0.2387717217206955 0.03325166553258896 0.597000002861023 231 230 227
0.2397618591785431 0.03325166553258896 0.597000002861023 236 230 228
0.23994547128677368 0.03314026817679405 0.5950000286102295 236 230 228
-0.006510530598461628 0.03848782554268837 0.6710000038146973 228 224 210
-0.005397661589086056 0.03848782554268837 0.6710000038146973 226 222 208
-0.004284791648387909 0.03848782554268837 0.6710000038146973 228 222 208
-0.0031719221733510494 0.03848782554268837 0.6710000038146973 232 226 212
-0.0020590529311448336 0.03848782554268837 0.6710000038146973 194 193 185
-0.000946183514315635 0.03848782554268837 0.6710000038146973 148 147 139
0.0001666858879616484 0.03848782554268837 0.6710000038146973 128 133 142
0.0012795552611351013 0.03848782554268837 0.6710000038146973 118 123 132
0.002392424736171961 0.03848782554268837 0.6710000038146973 107 109 121
0.0035052942112088203 0.03848782554268837 0.6710000038146973 98 100 112
0.0046181632205843925 0.03848782554268837 0.6710000038146973 92 92 104
0.005731033161282539 0.03848782554268837 0.6710000038146973 83 83 95
0.006843902170658112 0.03848782554268837 0.6710000038146973 72 79 90
0.00794491358101368 0.03843046724796295 0.6700000166893005 65 72 83
0.009042608551681042 0.038373108953237534 0.6690000295639038 55 67 77
0.010152161121368408 0.038373108953237534 0.6690000295639038 54 66 76
0.0112448800355196 0.038315750658512115 0.6680000424385071 50 63 76
0.012352773919701576 0.038315750658512115 0.6680000424385071 47 60 73
0.013440516777336597 0.0382583923637867 0.6670000553131104 51 62 75
0.014524942263960838 0.03820103034377098 0.6660000085830688 49 60 73
0.015629518777132034 0.03820103034377098 0.6660000085830688 55 62 71
0.016708970069885254 0.03814367204904556 0.6650000214576721 56 63 72
0.017811886966228485 0.03814367204904556 0.6650000214576721 59 65 72
0.018914807587862015 0.03814367204904556 0.6650000214576721 61 67 74
0.020017724484205246 0.03814367204904556 0.6650000214576721 64 70 77
0.021120643243193626 0.03814367204904556 0.6650000214576721 65 71 78
0.022223560139536858 0.03814367204904556 0.6650000214576721 75 72 81
0.023326478898525238 0.03814367204904556 0.6650000214576721 71 68 77
0.024429399520158768 0.03814367204904556 0.6650000214576721 173 167 160
0.025532316416502 0.03814367204904556 0.6650000214576721 225 219 212
0.02663523517549038 0.03814367204904556 0.6650000214576721 221 216 199
0.02773815207183361 0.03814367204904556 0.6650000214576721 221 216 199
0.02884107083082199 0.03814367204904556 0.6650000214576721 221 217 198
0.029943987727165222 0.03814367204904556 0.6650000214576721 223 219 200
0.031046908348798752 0.03814367204904556 0.6650000214576721 223 219 200
0.03214982524514198 0.03814367204904556 0.6650000214576721 223 219 200
0.033252742141485214 0.03814367204904556 0.6650000214576721 221 217 198
0.034355662763118744 0.03814367204904556 0.6650000214576721 223 219 200
0.035458579659461975 0.03814367204904556 0.6650000214576721 224 220 201
0.036561500281095505 0.03814367204904556 0.6650000214576721 224 220 201
0.037664417177438736 0.03814367204904556 0.6650000214576721 224 220 201
0.03876733407378197 0.03814367204904556 0.6650000214576721 223 219 200
0.039750345051288605 0.03802895545959473 0.6630000472068787 224 220 201
0.04078833386301994 0.03797159716486931 0.6620000600814819 224 220 201
0.04188627377152443 0.03797159716486931 0.6620000600814819 224 220 201
0.04291928559541702 0.03791423887014389 0.6610000133514404 223 219 200
0.043948981910943985 0.03785688057541847 0.6600000262260437 224 220 201
0.04504360631108284 0.03785688057541847 0.6600000262260437 224 220 201
0.04606832563877106 0.037799522280693054 0.659000039100647 221 219 200
0.047161296010017395 0.037799522280693054 0.659000039100647 219 217 198
0.04810781031847 0.03768480196595192 0.6570000052452087 219 217 198
0.04919746145606041 0.03768480196595192 0.6570000052452087 217 215 196
0.05028711259365082 0.03768480196595192 0.6570000052452087 213 213 202
0.051376763731241226 0.03768480196595192 0.6570000052452087 76 76 65
0.052466411143541336 0.03768480196595192 0.6570000052452087 71 66 70
0.053556058555841446 0.03768480196595192 0.6570000052452087 70 65 69
0.05464571341872215 0.03768480196595192 0.6570000052452087 66 66 67
0.05573536083102226 0.03768480196595192 0.6570000052452087 65 65 66
0.05682501196861267 0.03768480196595192 0.6570000052452087 62 66 66
0.05791466310620308 0.03768480196595192 0.6570000052452087 62 66 66
0.05900431424379349 0.03768480196595192 0.6570000052452087 62 66 66
0.0600939616560936 0.03768480196595192 0.6570000052452087 62 66 66
0.06118360906839371 0.03768480196595192 0.6570000052452087 60 66 66
0.062273263931274414 0.03768480196595192 0.6570000052452087 59 65 65
0.06336291134357452 0.03768480196595192 0.6570000052452087 59 65 65
0.06445255875587463 0.03768480196595192 0.6570000052452087 59 65 65
0.06554221361875534 0.03768480196595192 0.6570000052452087 59 65 65
0.06653044372797012 0.0376274436712265 0.656000018119812 60 66 66
0.06761843711137772 0.0376274436712265 0.656000018119812 60 66 66
0.06860169023275375 0.03757008537650108 0.6550000309944153 60 66 66
0.06947524100542068 0.03745536878705025 0.6530000567436218 60 66 66
0.07055825740098953 0.03745536878705025 0.6530000567436218 61 67 67
0.07164127379655838 0.03745536878705025 0.6530000567436218 61 67 66
0.07272429019212723 0.03745536878705025 0.6530000567436218 63 69 68
0.07369427382946014 0.03739800676703453 0.6520000100135803 71 71 71
0.07477562874555588 0.03739800676703453 0.6520000100135803 75 75 75
0.07585698366165161 0.03739800676703453 0.6520000100135803 83 76 71
0.07693834602832794 0.03739800676703453 0.6520000100135803 98 91 86
0.07790004462003708 0.03734064847230911 0.6510000228881836 225 221 207
0.0789797380566597 0.03734064847230911 0.6510000228881836 219 215 201
0.08005943894386292 0.03734064847230911 0.6510000228881836 221 218 201
0.08113913983106613 0.03734064847230911 0.6510000228881836 221 218 201
0.08221884071826935 0.03734064847230911 0.6510000228881836 223 218 201
0.08329853415489197 0.03734064847230911 0.6510000228881836 224 219 202
0.08450785279273987 0.03739800676703453 0.6520000100135803 224 219 202
0.085589200258255 0.03739800676703453 0.6520000100135803 224 219 202
0.08667056262493134 0.03739800676703453 0.6520000100135803 225 220 203
0.08775192499160767 0.03739800676703453 0.6520000100135803 224 219 202
0.0888332724571228 0.03739800676703453 0.6520000100135803 224 219 202
0.08991463482379913 0.03739800676703453 0.6520000100135803 224 219 202
0.09099599719047546 0.03739800676703453 0.6520000100135803 224 219 202
0.0920773446559906 0.03739800676703453 0.6520000100135803 224 219 202
0.09315870702266693 0.03739800676703453 0.6520000100135803 224 219 202
0.09395099431276321 0.037283290177583694 0.6500000357627869 225 220 203
0.09473662823438644 0.03716856986284256 0.6480000019073486 224 219 202
0.09581135213375092 0.03716856986284256 0.6480000019073486 224 219 202
0.09658705443143845 0.037053853273391724 0.6460000276565552 224 219 202
0.09765845537185669 0.037053853273391724 0.6460000276565552 224 219 202
0.09857703000307083 0.036996494978666306 0.6450000405311584 223 218 201
0.09933778643608093 0.03688177838921547 0.6430000066757202 221 216 199
0.10040421783924103 0.03688177838921547 0.6430000066757202 219 216 199
0.10115504264831543 0.03676706179976463 0.6410000324249268 218 215 198
0.1022181510925293 0.03676706179976463 0.6410000324249268 215 217 206
0.10295902192592621 0.0366523452103138 0.6390000581741333 178 180 169
0.10369324684143066 0.03653762489557266 0.6370000243186951 66 63 60
0.10474972426891327 0.03653762489557266 0.6370000243186951 72 69 66
0.10580620169639587 0.03653762489557266 0.6370000243186951 65 65 65
0.10669492930173874 0.036480266600847244 0.6360000371932983 65 65 65
0.10774974524974823 0.036480266600847244 0.6360000371932983 64 64 64
0.10880456864833832 0.036480266600847244 0.6360000371932983 64 64 64
0.10985938459634781 0.036480266600847244 0.6360000371932983 61 65 64
0.1107398197054863 0.036422908306121826 0.6350000500679016 61 65 64
0.11161692440509796 0.03636554628610611 0.6340000033378601 61 66 62
0.11266842484474182 0.03636554628610611 0.6340000033378601 61 66 62
0.11354056000709534 0.03630818799138069 0.6330000162124634 61 66 62
0.11459041386842728 0.03630818799138069 0.6330000162124634 61 66 62
0.11564025282859802 0.03630818799138069 0.6330000162124634 61 66 62
0.11669009923934937 0.03630818799138069 0.6330000162124634 61 66 62
0.11773994565010071 0.03630818799138069 0.6330000162124634 62 67 63
0.11860212683677673 0.03625082969665527 0.6320000290870667 63 68 64
0.11965031921863556 0.03625082969665527 0.6320000290870667 63 68 64
0.12069851160049438 0.03625082969665527 0.6320000290870667 63 68 64
0.12155405431985855 0.036193471401929855 0.6310000419616699 62 69 65
0.12260058522224426 0.036193471401929855 0.6310000419616699 62 69 65
0.12364710867404938 0.036193471401929855 0.6310000419616699 68 73 69
0.12469363957643509 0.036193471401929855 0.6310000419616699 70 75 71
0.1257401704788208 0.036193471401929855 0.6310000419616699 77 78 75
0.12678669393062592 0.036193471401929855 0.6310000419616699 83 84 81
0.12803581357002258 0.03625082969665527 0.6320000290870667 98 92 85
0.12928825616836548 0.03630818799138069 0.6330000162124634 99 93 86
0.13033808767795563 0.03630818799138069 0.6330000162124634 221 217 203
0.13138793408870697 0.03630818799138069 0.6330000162124634 224 220 206
0.13264700770378113 0.03636554628610611 0.6340000033378601 224 220 206
0.133698508143425 0.03636554628610611 0.6340000033378601 225 221 207
0.1349625587463379 0.036422908306121826 0.6350000500679016 224 220 206
0.13601572811603546 0.036422908306121826 0.6350000500679016 224 220 206
0.13728474080562592 0.036480266600847244 0.6360000371932983 227 221 207
0.1385570764541626 0.03653762489557266 0.6370000243186951 227 221 207
0.1396135538816452 0.03653762489557266 0.6370000243186951 227 221 207
0.1406700313091278 0.03653762489557266 0.6370000243186951 227 221 207
0.1417265087366104 0.03653762489557266 0.6370000243186951 227 221 207
0.14278298616409302 0.03653762489557266 0.6370000243186951 227 221 207
0.14383946359157562 0.03653762489557266 0.6370000243186951 228 222 208
0.14489595592021942 0.03653762489557266 0.6370000243186951 228 222 208
0.14595243334770203 0.03653762489557266 0.6370000243186951 227 221 207
0.14700891077518463 0.03653762489557266 0.6370000243186951 227 221 207
0.14760051667690277 0.036422908306121826 0.6350000500679016 227 221 207
0.1484195590019226 0.03636554628610611 0.6340000033378601 228 222 208
0.14947107434272766 0.03636554628610611 0.6340000033378601 228 222 208
0.149810329079628 0.036193471401929855 0.6310000419616699 228 222 208
0.1508568525314331 0.036193471401929855 0.6310000419616699 228 222 208
0.1514219045639038 0.03607875108718872 0.6290000081062317 227 221 207
0.15222272276878357 0.0360213927924633 0.628000020980835 227 221 207
0.15326428413391113 0.0360213927924633 0.628000020980835 227 221 207
0.1538144201040268 0.035906676203012466 0.6260000467300415 223 219 207
0.15460526943206787 0.03584931790828705 0.625 221 217 205
0.1556418538093567 0.03584931790828705 0.625 219 220 212
0.15642774105072021 0.03579195961356163 0.6240000128746033 159 160 152
0.15746267139911652 0.03579195961356163 0.6240000128746033 65 64 68
0.1582435965538025 0.03573460131883621 0.6230000257492065 72 71 75
0.15927685797214508 0.03573460131883621 0.6230000257492065 66 70 70
0.16056743264198303 0.03579195961356163 0.6240000128746033 66 70 70
0.16160233318805695 0.03579195961356163 0.6240000128746033 66 70 70
0.16263726353645325 0.03579195961356163 0.6240000128746033 66 70 70
0.16419677436351776 0.035906676203012466 0.6260000467300415 66 70 70
0.1652350127696991 0.035906676203012466 0.6260000467300415 66 70 70
0.16653886437416077 0.035964034497737885 0.6270000338554382 66 70 70
0.1675787717103958 0.035964034497737885 0.6270000338554382 66 70 70
0.16888757050037384 0.0360213927924633 0.628000020980835 66 70 70
0.1699291318655014 0.0360213927924633 0.628000020980835 66 70 70
0.17097067832946777 0.0360213927924633 0.628000020980835 66 72 72
0.17201223969459534 0.0360213927924633 0.628000020980835 66 72 72
0.1730538010597229 0.0360213927924633 0.628000020980835 64 70 70
0.17409533262252808 0.0360213927924633 0.628000020980835 64 70 70
0.17513689398765564 0.0360213927924633 0.628000020980835 64 70 70
0.176178440451622 0.0360213927924633 0.628000020980835 66 72 72
0.1766556203365326 0.035906676203012466 0.6260000467300415 66 72 72
0.17769385874271393 0.035906676203012466 0.6260000467300415 67 73 73
0.17816105484962463 0.03579195961356163 0.6240000128746033 68 74 74
0.17833444476127625 0.035619884729385376 0.6210000514984131 68 74 74
0.1793643981218338 0.035619884729385376 0.6210000514984131 72 76 75
0.1801038384437561 0.03556252270936966 0.6200000047683716 74 78 77
0.18113212287425995 0.03556252270936966 0.6200000047683716 84 83 80
0.1818666160106659 0.03550516441464424 0.6190000176429749 90 89 86
0.1823022961616516 0.035390447825193405 0.6170000433921814 96 90 83
0.1833256185054779 0.035390447825193405 0.6170000433921814 146 140 133
0.18375134468078613 0.03527572751045227 0.6150000095367432 233 228 218
0.1847713440656662 0.03527572751045227 0.6150000095367432 228 223 213
0.1854892373085022 0.03521836921572685 0.6140000224113464 229 224 214
0.18590007722377777 0.035103652626276016 0.612000048160553 229 224 214
0.1869150698184967 0.035103652626276016 0.612000048160553 231 224 214
0.18793009221553802 0.035103652626276016 0.612000048160553 231 224 214
0.18894511461257935 0.035103652626276016 0.612000048160553 232 226 214
0.18996013700962067 0.035103652626276016 0.612000048160553 232 226 214
0.19066308438777924 0.0350462906062603 0.6110000014305115 235 226 215
0.19167643785476685 0.0350462906062603 0.6110000014305115 233 224 213
0.19237442314624786 0.03498893231153488 0.6100000143051147 234 225 214
0.19338613748550415 0.03498893231153488 0.6100000143051147 235 226 215
0.19439783692359924 0.03498893231153488 0.6100000143051147 235 226 215
0.19540953636169434 0.03498893231153488 0.6100000143051147 235 226 215
0.19609923660755157 0.034931574016809464 0.609000027179718 235 226 215
0.19710926711559296 0.034931574016809464 0.609000027179718 235 226 215
0.19811931252479553 0.034931574016809464 0.609000027179718 236 227 216
0.1991293579339981 0.034931574016809464 0.609000027179718 235 226 215
0.20013940334320068 0.034931574016809464 0.609000027179718 235 226 215
0.20114944875240326 0.034931574016809464 0.609000027179718 235 226 215
0.20215949416160583 0.034931574016809464 0.609000027179718 234 228 216
0.20283590257167816 0.034874215722084045 0.6080000400543213 234 228 216
0.20384429395198822 0.034874215722084045 0.6080000400543213 233 227 215
0.2045157551765442 0.03481685742735863 0.6070000529289246 232 226 214
0.20552247762680054 0.03481685742735863 0.6070000529289246 230 226 214
0.20652921497821808 0.03481685742735863 0.6070000529289246 230 226 214
0.20753592252731323 0.03481685742735863 0.6070000529289246 226 222 215
0.20854264497756958 0.03481685742735863 0.6070000529289246 222 218 211
0.20954936742782593 0.03481685742735863 0.6070000529289246 213 210 207
0.21055610477924347 0.03481685742735863 0.6070000529289246 95 92 89
0.21156282722949982 0.03481685742735863 0.6070000529289246 79 75 75
0.21256954967975616 0.03481685742735863 0.6070000529289246 81 77 77
0.21392811834812164 0.034874215722084045 0.6080000400543213 71 77 77
0.2149364948272705 0.034874215722084045 0.6080000400543213 71 77 77
0.21594488620758057 0.034874215722084045 0.6080000400543213 70 75 78
0.21695327758789062 0.034874215722084045 0.6080000400543213 72 77 80
0.2179616540670395 0.034874215722084045 0.6080000400543213 72 77 80
0.21897003054618835 0.034874215722084045 0.6080000400543213 72 77 80
0.22034020721912384 0.034931574016809464 0.609000027179718 72 77 80
0.22135025262832642 0.034931574016809464 0.609000027179718 74 79 82
0.222360298037529 0.034931574016809464 0.609000027179718 72 77 80
0.22337034344673157 0.034931574016809464 0.609000027179718 71 76 79
0.22438038885593414 0.034931574016809464 0.609000027179718 69 77 79
0.22539041936397552 0.034931574016809464 0.609000027179718 69 77 79
0.2264004647731781 0.034931574016809464 0.609000027179718 73 81 83
0.22703708708286285 0.034874215722084045 0.6080000400543213 72 80 82
0.22767040133476257 0.03481685742735863 0.6070000529289246 74 81 85
0.22867713868618011 0.03481685742735863 0.6070000529289246 74 81 85
0.2293054312467575 0.03475949540734291 0.6060000061988831 74 81 85
0.23031049966812134 0.03475949540734291 0.6060000061988831 73 80 84
0.23093387484550476 0.03470214083790779 0.6050000190734863 76 80 85
0.23117054998874664 0.034587424248456955 0.6030000448226929 79 83 88
0.23217064142227173 0.034587424248456955 0.6030000448226929 79 83 88
0.23278406262397766 0.03453006595373154 0.6020000576972961 79 83 88
0.23378247022628784 0.03453006595373154 0.6020000576972961 79 83 88
0.23439088463783264 0.03447270393371582 0.6010000109672546 82 86 91
0.2349960058927536 0.0344153456389904 0.6000000238418579 86 88 93
0.23599113523960114 0.0344153456389904 0.6000000238418579 85 87 92
0.23619630932807922 0.034300629049539566 0.5980000495910645 129 128 132
0.2367914468050003 0.03424326702952385 0.597000002861023 228 227 231
0.2377815693616867 0.03424326702952385 0.597000002861023 227 225 225
0.2387717217206955 0.03424326702952385 0.597000002861023 231 229 229
0.2397618591785431 0.03424326702952385 0.597000002861023 236 230 228
0.23994547128677368 0.03412855044007301 0.5950000286102295 236 230 228
-0.00649112556129694 0.03948430344462395 0.6690000295639038 230 224 210
-0.005381572991609573 0.03948430344462395 0.6690000295639038 228 222 208
-0.004272020421922207 0.03948430344462395 0.6690000295639038 228 222 208
-0.003162468085065484 0.03948430344462395 0.6690000295639038 236 230 216
-0.002052915748208761 0.03948430344462395 0.6690000295639038 151 150 147
-0.0009419532725587487 0.039425283670425415 0.6680000424385071 68 67 64
0.00016594065527897328 0.039425283670425415 0.6680000424385071 51 56 72
0.001273834495805204 0.039425283670425415 0.6680000424385071 52 57 73
0.0023852938320487738 0.03948430344462395 0.6690000295639038 52 57 73
0.0034948464017361403 0.03948430344462395 0.6690000295639038 56 61 77
0.004604398738592863 0.03948430344462395 0.6690000295639038 52 59 70
0.005705410148948431 0.039425283670425415 0.6680000424385071 53 60 71
0.006813304033130407 0.039425283670425415 0.6680000424385071 51 60 71
0.007921197451651096 0.039425283670425415 0.6680000424385071 54 63 74
0.009029092267155647 0.039425283670425415 0.6680000424385071 51 63 71
0.010136986151337624 0.039425283670425415 0.6680000424385071 51 63 71
0.011228046379983425 0.03936626389622688 0.6670000553131104 52 64 72
0.012334281578660011 0.03936626389622688 0.6670000553131104 53 65 73
0.013400214724242687 0.03924822434782982 0.6650000214576721 54 63 72
0.014503133483231068 0.03924822434782982 0.6650000214576721 54 63 72
0.015606051310896873 0.03924822434782982 0.6650000214576721 55 63 70
0.01668384298682213 0.03918920457363129 0.6640000343322754 55 63 70
0.017785103991627693 0.03918920457363129 0.6640000343322754 58 65 69
0.01888636313378811 0.03918920457363129 0.6640000343322754 60 67 71
0.019957521930336952 0.039130184799432755 0.6630000472068787 60 67 71
0.021057123318314552 0.039130184799432755 0.6630000472068787 62 69 73
0.02212330512702465 0.03907116502523422 0.6620000600814819 72 70 76
0.023221248760819435 0.03907116502523422 0.6620000600814819 69 67 73
0.02431919239461422 0.03907116502523422 0.6620000600814819 187 181 174
0.025417134165763855 0.03907116502523422 0.6620000600814819 223 217 210
0.02651507779955864 0.03907116502523422 0.6620000600814819 221 216 199
0.027613019570708275 0.03907116502523422 0.6620000600814819 221 216 199
0.02871096320450306 0.03907116502523422 0.6620000600814819 224 219 202
0.029808904975652695 0.03907116502523422 0.6620000600814819 224 219 202
0.03090684860944748 0.03907116502523422 0.6620000600814819 224 220 201
0.032053135335445404 0.039130184799432755 0.6630000472068787 223 219 200
0.033152736723423004 0.039130184799432755 0.6630000472068787 223 219 200
0.034252338111400604 0.039130184799432755 0.6630000472068787 223 219 200
0.035351939499378204 0.039130184799432755 0.6630000472068787 224 220 201
0.036451540887355804 0.039130184799432755 0.6630000472068787 224 220 201
0.03749450296163559 0.03907116502523422 0.6620000600814819 225 221 202
0.038592446595430374 0.03907116502523422 0.6620000600814819 224 220 201
0.039630431681871414 0.03901214152574539 0.6610000133514404 224 220 201
0.04066510498523712 0.03895312547683716 0.6600000262260437 225 221 202
0.04175972938537598 0.03895312547683716 0.6600000262260437 225 221 202
0.04278942570090294 0.038894105702638626 0.659000039100647 224 220 201
0.043749213218688965 0.03877606242895126 0.6570000052452087 222 220 201
0.044838860630989075 0.03877606242895126 0.6570000052452087 222 220 201
0.045928508043289185 0.03877606242895126 0.6570000052452087 222 220 201
0.04701816290616989 0.03877606242895126 0.6570000052452087 221 219 200
0.04803458973765373 0.03871704265475273 0.656000018119812 219 216 199
0.049047697335481644 0.0386580228805542 0.6550000309944153 222 219 202
0.05013403296470642 0.0386580228805542 0.6550000309944153 210 210 199
0.0512203648686409 0.0386580228805542 0.6550000309944153 71 71 60
0.05230669677257538 0.0386580228805542 0.6550000309944153 71 67 68
0.05339302867650986 0.0386580228805542 0.6550000309944153 69 65 66
0.05447936803102493 0.0386580228805542 0.6550000309944153 64 64 64
0.05556569620966911 0.0386580228805542 0.6550000309944153 64 64 64
0.05665202811360359 0.0386580228805542 0.6550000309944153 64 64 65
0.05773836746811867 0.0386580228805542 0.6550000309944153 64 64 65
0.05891450494527817 0.03871704265475273 0.656000018119812 61 65 65
0.06000249460339546 0.03871704265475273 0.656000018119812 61 65 65
0.061090484261512756 0.03871704265475273 0.656000018119812 59 65 65
0.06217848137021065 0.03871704265475273 0.656000018119812 59 65 65
0.06326647102832794 0.03871704265475273 0.656000018119812 59 65 65
0.06435446441173553 0.03871704265475273 0.656000018119812 57 63 63
0.06534269452095032 0.0386580228805542 0.6550000309944153 59 65 65
0.0664290264248848 0.0386580228805542 0.6550000309944153 59 65 65
0.06751535832881927 0.0386580228805542 0.6550000309944153 59 65 65
0.06839222460985184 0.038539987057447433 0.6530000567436218 59 65 65
0.06936884671449661 0.0384809635579586 0.6520000100135803 59 65 64
0.07045020163059235 0.0384809635579586 0.6520000100135803 60 66 65
0.07153155654668808 0.0384809635579586 0.6520000100135803 61 67 66
0.07261291891336441 0.0384809635579586 0.6520000100135803 62 68 67
0.07369427382946014 0.0384809635579586 0.6520000100135803 69 70 67
0.07466094940900803 0.03842194378376007 0.6510000228881836 75 76 73
0.07574064284563065 0.03842194378376007 0.6510000228881836 84 77 72
0.07670234143733978 0.03836292400956154 0.6500000357627869 98 91 86
0.07778038084506989 0.03836292400956154 0.6500000357627869 228 224 210
0.07885842025279999 0.03836292400956154 0.6500000357627869 221 217 203
0.07993645966053009 0.03836292400956154 0.6500000357627869 221 218 201
0.08101450651884079 0.03836292400956154 0.6500000357627869 221 218 201
0.08209254592657089 0.03836292400956154 0.6500000357627869 224 219 202
0.08329853415489197 0.03842194378376007 0.6510000228881836 224 219 202
0.08450785279273987 0.0384809635579586 0.6520000100135803 224 219 202
0.085589200258255 0.0384809635579586 0.6520000100135803 224 219 202
0.08667056262493134 0.0384809635579586 0.6520000100135803 225 220 203
0.08775192499160767 0.0384809635579586 0.6520000100135803 224 219 202
0.0888332724571228 0.0384809635579586 0.6520000100135803 224 219 202
0.08991463482379913 0.0384809635579586 0.6520000100135803 224 219 202
0.09085643291473389 0.03842194378376007 0.6510000228881836 225 220 203
0.09179490804672241 0.03836292400956154 0.6500000357627869 225 220 203
0.09287294745445251 0.03836292400956154 0.6500000357627869 224 219 202
0.09395099431276321 0.03836292400956154 0.6500000357627869 225 220 203
0.0945904329419136 0.03818586468696594 0.6470000147819519 225 220 203
0.09566349536180496 0.03818586468696594 0.6470000147819519 224 219 202
0.09658705443143845 0.03812684491276741 0.6460000276565552 224 219 202
0.09765845537185669 0.03812684491276741 0.6460000276565552 224 219 202
0.09842420369386673 0.038008809089660645 0.6440000534057617 224 219 202
0.09933778643608093 0.037949785590171814 0.6430000066757202 223 218 201
0.10040421783924103 0.037949785590171814 0.6430000066757202 219 216 199
0.10115504264831543 0.03783174604177475 0.6410000324249268 217 214 197
0.1022181510925293 0.03783174604177475 0.6410000324249268 213 216 203
0.10295902192592621 0.037713706493377686 0.6390000581741333 182 185 172
0.10369324684143066 0.03759566694498062 0.6370000243186951 66 62 62
0.10474972426891327 0.03759566694498062 0.6370000243186951 71 67 67
0.10564010590314865 0.03753664717078209 0.6360000371932983 65 65 65
0.1065271720290184 0.03747762739658356 0.6350000500679016 64 64 64
0.10758032649755478 0.03747762739658356 0.6350000500679016 62 62 62
0.10863349586725235 0.03747762739658356 0.6350000500679016 64 64 64
0.10968665033578873 0.03747762739658356 0.6350000500679016 64 64 64
0.1107398197054863 0.03747762739658356 0.6350000500679016 64 64 64
0.11161692440509796 0.03741860389709473 0.6340000033378601 59 64 60
0.11266842484474182 0.03741860389709473 0.6340000033378601 61 66 62
0.11354056000709534 0.03735958784818649 0.6330000162124634 61 66 62
0.11459041386842728 0.03735958784818649 0.6330000162124634 61 66 62
0.11564025282859802 0.03735958784818649 0.6330000162124634 59 64 60
0.11669009923934937 0.03735958784818649 0.6330000162124634 61 66 62
0.11773994565010071 0.03735958784818649 0.6330000162124634 61 66 62
0.11860212683677673 0.03730056807398796 0.6320000290870667 62 67 63
0.11965031921863556 0.03730056807398796 0.6320000290870667 63 68 64
0.12069851160049438 0.03730056807398796 0.6320000290870667 63 68 64
0.12155405431985855 0.03724154829978943 0.6310000419616699 64 69 65
0.12260058522224426 0.03724154829978943 0.6310000419616699 64 69 65
0.12364710867404938 0.03724154829978943 0.6310000419616699 68 73 69
0.12469363957643509 0.03724154829978943 0.6310000419616699 70 75 71
0.1257401704788208 0.03724154829978943 0.6310000419616699 77 78 75
0.12678669393062592 0.03724154829978943 0.6310000419616699 82 83 80
0.12783323228359222 0.03724154829978943 0.6310000419616699 97 91 84
0.1290840059518814 0.03730056807398796 0.6320000290870667 95 89 82
0.13013218343257904 0.03730056807398796 0.6320000290870667 215 211 197
0.13138793408870697 0.03735958784818649 0.6330000162124634 224 220 206
0.1324377804994583 0.03735958784818649 0.6330000162124634 222 220 206
0.13348762691020966 0.03735958784818649 0.6330000162124634 222 220 206
0.13475000858306885 0.03741860389709473 0.6340000033378601 224 220 206
0.1358015239238739 0.03741860389709473 0.6340000033378601 224 220 206
0.13706888258457184 0.03747762739658356 0.6350000500679016 227 221 207
0.138339564204216 0.03753664717078209 0.6360000371932983 227 221 207
0.1393943727016449 0.03753664717078209 0.6360000371932983 227 221 207
0.1406700313091278 0.03759566694498062 0.6370000243186951 227 221 207
0.1417265087366104 0.03759566694498062 0.6370000243186951 227 221 207
0.14278298616409302 0.03759566694498062 0.6370000243186951 227 221 207
0.14383946359157562 0.03759566694498062 0.6370000243186951 228 222 208
0.14489595592021942 0.03759566694498062 0.6370000243186951 228 222 208
0.14572329819202423 0.03753664717078209 0.6360000371932983 228 222 208
0.1467781364917755 0.03753664717078209 0.6360000371932983 227 221 207
0.14736805856227875 0.03741860389709473 0.6340000033378601 228 222 208
0.14818546175956726 0.03735958784818649 0.6330000162124634 227 221 207
0.1492353081703186 0.03735958784818649 0.6330000162124634 228 222 208
0.14957290887832642 0.0371825285255909 0.6300000548362732 228 222 208
0.150617778301239 0.0371825285255909 0.6300000548362732 227 221 207
0.1511811763048172 0.03706448897719383 0.628000020980835 227 221 207
0.15173794329166412 0.03694644942879677 0.6260000467300415 226 220 206
0.15277618169784546 0.03694644942879677 0.6260000467300415 226 220 206
0.15356869995594025 0.03688742592930794 0.625 223 219 205
0.15435791015625 0.036828406155109406 0.6240000128746033 219 215 201
0.1553928256034851 0.036828406155109406 0.6240000128746033 218 219 211
0.15592637658119202 0.03671037033200264 0.6220000386238098 178 179 171
0.1569579839706421 0.03671037033200264 0.6220000386238098 66 65 69
0.15798959136009216 0.03671037033200264 0.6220000386238098 72 71 75
0.15902119874954224 0.03671037033200264 0.6220000386238098 66 70 70
0.1600528061389923 0.03671037033200264 0.6220000386238098 66 70 70
0.16108438372612 0.03671037033200264 0.6220000386238098 66 70 70
0.16237662732601166 0.03676938638091087 0.6230000257492065 66 70 70
0.16419677436351776 0.03694644942879677 0.6260000467300415 66 70 70
0.1652350127696991 0.03694644942879677 0.6260000467300415 66 70 70
0.16627326607704163 0.03694644942879677 0.6260000467300415 66 70 70
0.16731150448322296 0.03694644942879677 0.6260000467300415 66 70 70
0.16861864924430847 0.0370054692029953 0.6270000338554382 68 72 72
0.1699291318655014 0.03706448897719383 0.628000020980835 68 72 72
0.17097067832946777 0.03706448897719383 0.628000020980835 66 72 72
0.17201223969459534 0.03706448897719383 0.628000020980835 66 72 72
0.1730538010597229 0.03706448897719383 0.628000020980835 64 70 70
0.17409533262252808 0.03706448897719383 0.628000020980835 64 70 70
0.17513689398765564 0.03706448897719383 0.628000020980835 66 72 72
0.17589791119098663 0.0370054692029953 0.6270000338554382 66 72 72
0.1763734072446823 0.03688742592930794 0.625 66 72 72
0.17740997672080994 0.03688742592930794 0.625 67 73 73
0.1775900274515152 0.03671037033200264 0.6220000386238098 68 74 74
0.1780472695827484 0.03659232705831528 0.6200000047683716 68 74 74
0.17907555401325226 0.03659232705831528 0.6200000047683716 72 76 75
0.17981335520744324 0.036533307284116745 0.6190000176429749 74 78 77
0.18083998560905457 0.036533307284116745 0.6190000176429749 81 82 79
0.1812790036201477 0.03641527146100998 0.6170000433921814 88 89 86
0.1817113608121872 0.03629722818732262 0.6150000095367432 96 92 85
0.18273136019706726 0.03629722818732262 0.6150000095367432 125 121 114
0.1834525763988495 0.036238208413124084 0.6140000224113464 231 226 216
0.18447090685367584 0.036238208413124084 0.6140000224113464 228 223 213
0.18488505482673645 0.03612017259001732 0.612000048160553 228 223 213
0.18559630215168 0.03606114909052849 0.6110000014305115 229 224 214
0.1866096407175064 0.03606114909052849 0.6110000014305115 231 224 214
0.1873159259557724 0.036002129316329956 0.6100000143051147 231 224 214
0.1883276402950287 0.036002129316329956 0.6100000143051147 231 224 214
0.18933933973312378 0.036002129316329956 0.6100000143051147 232 225 215
0.19035103917121887 0.036002129316329956 0.6100000143051147 234 224 215
0.19136272370815277 0.036002129316329956 0.6100000143051147 234 224 215
0.19205906987190247 0.035943109542131424 0.609000027179718 234 224 215
0.19306911528110504 0.035943109542131424 0.609000027179718 235 225 216
0.19407914578914642 0.035943109542131424 0.609000027179718 234 224 215
0.195089191198349 0.035943109542131424 0.609000027179718 235 225 216
0.19609923660755157 0.035943109542131424 0.609000027179718 234 224 215
0.19710926711559296 0.035943109542131424 0.609000027179718 235 225 216
0.19779399037361145 0.03588408976793289 0.6080000400543213 235 225 216
0.1988023817539215 0.03588408976793289 0.6080000400543213 235 225 216
0.19948214292526245 0.03582506999373436 0.6070000529289246 235 225 216
0.2004888653755188 0.03582506999373436 0.6070000529289246 235 225 216
0.20149558782577515 0.03582506999373436 0.6070000529289246 233 226 216
0.2025022953748703 0.03582506999373436 0.6070000529289246 233 226 216
0.20350903272628784 0.03582506999373436 0.6070000529289246 232 226 214
0.2045157551765442 0.03582506999373436 0.6070000529289246 231 225 213
0.20518387854099274 0.03576605021953583 0.6060000061988831 230 226 214
0.20618894696235657 0.03576605021953583 0.6060000061988831 230 226 214
0.2071940004825592 0.03576605021953583 0.6060000061988831 227 224 214
0.20819906890392303 0.03576605021953583 0.6060000061988831 223 220 210
0.20920413732528687 0.03576605021953583 0.6060000061988831 225 223 217
0.2102092057466507 0.03576605021953583 0.6060000061988831 115 113 107
0.21121427416801453 0.03576605021953583 0.6060000061988831 78 73 77
0.21221934258937836 0.03576605021953583 0.6060000061988831 86 81 85
0.213224396109581 0.03576605021953583 0.6060000061988831 74 78 83
0.21458299458026886 0.03582506999373436 0.6070000529289246 76 80 85
0.2155897170305252 0.03582506999373436 0.6070000529289246 74 78 83
0.21659643948078156 0.03582506999373436 0.6070000529289246 76 80 85
0.2176031768321991 0.03582506999373436 0.6070000529289246 77 81 86
0.21860988438129425 0.03582506999373436 0.6070000529289246 77 81 86
0.2196166068315506 0.03582506999373436 0.6070000529289246 76 80 85
0.22098679840564728 0.03588408976793289 0.6080000400543213 77 81 86
0.22199517488479614 0.03588408976793289 0.6080000400543213 77 80 83
0.2230035662651062 0.03588408976793289 0.6080000400543213 78 81 84
0.22401195764541626 0.03588408976793289 0.6080000400543213 75 80 83
0.22465021908283234 0.03582506999373436 0.6070000529289246 79 84 87
0.22565695643424988 0.03582506999373436 0.6070000529289246 76 84 86
0.22666367888450623 0.03582506999373436 0.6070000529289246 76 84 86
0.22729530930519104 0.03576605021953583 0.6060000061988831 86 93 97
0.22830037772655487 0.03576605021953583 0.6060000061988831 82 89 93
0.22892704606056213 0.035707030445337296 0.6050000190734863 84 91 95
0.22993046045303345 0.035707030445337296 0.6050000190734863 88 95 99
0.23055216670036316 0.03564801067113876 0.6040000319480896 93 96 99
0.23078718781471252 0.0355299711227417 0.6020000576972961 98 101 104
0.2317856252193451 0.0355299711227417 0.6020000576972961 107 106 110
0.23201067745685577 0.035411931574344635 0.6000000238418579 111 110 114
0.23300577700138092 0.035411931574344635 0.6000000238418579 117 115 116
0.23400089144706726 0.035411931574344635 0.6000000238418579 127 125 126
0.2342126965522766 0.03529389202594757 0.5980000495910645 137 135 135
0.23520450294017792 0.03529389202594757 0.5980000495910645 141 139 139
0.2358013093471527 0.03523486852645874 0.597000002861023 160 159 156
0.2367914468050003 0.03523486852645874 0.597000002861023 211 210 207
0.23738329112529755 0.03517585247755051 0.5960000157356262 228 225 222
0.23797182738780975 0.035116832703351974 0.5950000286102295 233 230 227
0.23895864188671112 0.035116832703351974 0.5950000286102295 236 230 228
0.23954220116138458 0.03505781292915344 0.5940000414848328 235 229 227
-0.00649112556129694 0.04059549793601036 0.6690000295639038 228 222 208
-0.005381572991609573 0.04059549793601036 0.6690000295639038 228 222 208
-0.004272020421922207 0.04059549793601036 0.6690000295639038 227 221 207
-0.003162468085065484 0.04059549793601036 0.6690000295639038 239 233 219
-0.002052915748208761 0.04059549793601036 0.6690000295639038 135 131 132
-0.0009419532725587487 0.04053482040762901 0.6680000424385071 57 53 54
0.00016594065527897328 0.04053482040762901 0.6680000424385071 59 61 73
0.001273834495805204 0.04053482040762901 0.6680000424385071 57 59 71
0.0023852938320487738 0.04059549793601036 0.6690000295639038 54 59 70
0.0034948464017361403 0.04059549793601036 0.6690000295639038 52 57 68
0.004604398738592863 0.04059549793601036 0.6690000295639038 50 58 65
0.005705410148948431 0.04053482040762901 0.6680000424385071 51 59 66
0.006813304033130407 0.04053482040762901 0.6680000424385071 50 60 67
0.007897481322288513 0.04041345417499542 0.6660000085830688 50 60 67
0.009002058766782284 0.04041345417499542 0.6660000085830688 49 59 66
0.010091460309922695 0.040352776646614075 0.6650000214576721 49 59 66
0.011194379068911076 0.040352776646614075 0.6650000214576721 51 60 64
0.012297296896576881 0.040352776646614075 0.6650000214576721 52 61 65
0.013380064629018307 0.04029209539294243 0.6640000343322754 52 62 64
0.014459514990448952 0.04023141413927078 0.6630000472068787 52 62 64
0.015559116378426552 0.04023141413927078 0.6630000472068787 54 63 62
0.016633592545986176 0.040170732885599136 0.6620000600814819 54 63 62
0.01773153431713581 0.040170732885599136 0.6620000600814819 57 63 63
0.018829477950930595 0.040170732885599136 0.6620000600814819 59 65 65
0.01989731751382351 0.04011005163192749 0.6610000133514404 60 66 66
0.02099360153079033 0.04011005163192749 0.6610000133514404 62 68 68
0.022089883685112 0.04011005163192749 0.6610000133514404 71 70 74
0.02315109223127365 0.040049370378255844 0.6600000262260437 68 67 71
0.024245718494057655 0.040049370378255844 0.6600000262260437 203 198 188
0.02534034289419651 0.040049370378255844 0.6600000262260437 223 218 208
0.026434971019625664 0.040049370378255844 0.6600000262260437 223 218 201
0.02752959541976452 0.040049370378255844 0.6600000262260437 223 218 201
0.028624221682548523 0.040049370378255844 0.6600000262260437 224 219 202
0.029763873666524887 0.04011005163192749 0.6610000133514404 223 218 201
0.030860159546136856 0.04011005163192749 0.6610000133514404 224 219 202
0.031956445425748825 0.04011005163192749 0.6610000133514404 224 219 202
0.03310273215174675 0.040170732885599136 0.6620000600814819 223 218 201
0.034200675785541534 0.040170732885599136 0.6620000600814819 224 219 202
0.03529861941933632 0.040170732885599136 0.6620000600814819 225 220 203
0.036396563053131104 0.040170732885599136 0.6620000600814819 225 220 203
0.037437863647937775 0.04011005163192749 0.6610000133514404 225 220 203
0.038534149527549744 0.04011005163192749 0.6610000133514404 224 219 202
0.03957047685980797 0.040049370378255844 0.6600000262260437 225 220 203
0.0405418761074543 0.03992801159620285 0.6580000519752502 225 220 203
0.041633184999227524 0.03992801159620285 0.6580000519752502 225 220 203
0.042659562081098557 0.039867326617240906 0.6570000052452087 224 219 202
0.043749213218688965 0.039867326617240906 0.6570000052452087 223 220 203
0.04470236599445343 0.03974596783518791 0.6550000309944153 222 219 202
0.04578869789838791 0.03974596783518791 0.6550000309944153 222 219 202
0.046875033527612686 0.03974596783518791 0.6550000309944153 221 218 201
0.047961365431547165 0.03974596783518791 0.6550000309944153 217 216 199
0.04897281527519226 0.039685286581516266 0.6540000438690186 221 220 203
0.05005749687552452 0.039685286581516266 0.6540000438690186 201 200 192
0.05106396973133087 0.03962460532784462 0.6530000567436218 70 69 61
0.05214698612689972 0.03962460532784462 0.6530000567436218 70 66 66
0.05322999879717827 0.03962460532784462 0.6530000567436218 69 65 65
0.054313018918037415 0.03962460532784462 0.6530000567436218 64 64 64
0.05548086762428284 0.039685286581516266 0.6540000438690186 62 62 62
0.0565655380487442 0.039685286581516266 0.6540000438690186 62 62 62
0.05773836746811867 0.03974596783518791 0.6550000309944153 64 64 64
0.058824699372053146 0.03974596783518791 0.6550000309944153 59 63 62
0.059911031275987625 0.03974596783518791 0.6550000309944153 59 63 62
0.060997363179922104 0.03974596783518791 0.6550000309944153 61 65 65
0.06208369880914688 0.03974596783518791 0.6550000309944153 59 63 63
0.06317003071308136 0.03974596783518791 0.6550000309944153 57 63 63
0.06425636261701584 0.03974596783518791 0.6550000309944153 57 63 63
0.06534269452095032 0.03974596783518791 0.6550000309944153 59 65 65
0.06632760912179947 0.039685286581516266 0.6540000438690186 59 65 65
0.06741228699684143 0.039685286581516266 0.6540000438690186 57 63 62
0.06828748434782028 0.039563924074172974 0.6520000100135803 59 65 64
0.06926245242357254 0.03950324282050133 0.6510000228881836 59 65 64
0.07034215331077576 0.03950324282050133 0.6510000228881836 60 66 65
0.07142184674739838 0.03950324282050133 0.6510000228881836 61 67 66
0.07250154763460159 0.03950324282050133 0.6510000228881836 62 68 67
0.07346822321414948 0.03944256156682968 0.6500000357627869 69 70 67
0.07454626262187958 0.03944256156682968 0.6500000357627869 74 75 72
0.07562430202960968 0.03944256156682968 0.6500000357627869 84 77 72
0.07670234143733978 0.03944256156682968 0.6500000357627869 99 92 87
0.07766072452068329 0.039381884038448334 0.6490000486373901 229 225 211
0.07873710244894028 0.039381884038448334 0.6490000486373901 221 217 203
0.07981348037719727 0.039381884038448334 0.6490000486373901 221 218 201
0.08088986575603485 0.039381884038448334 0.6490000486373901 222 219 202
0.08196625113487244 0.039381884038448334 0.6490000486373901 222 219 202
0.08304262906312943 0.039381884038448334 0.6490000486373901 222 219 202
0.0842486247420311 0.03944256156682968 0.6500000357627869 224 219 202
0.0853266641497612 0.03944256156682968 0.6500000357627869 224 219 202
0.0864047035574913 0.03944256156682968 0.6500000357627869 224 219 202
0.087482750415802 0.03944256156682968 0.6500000357627869 224 219 202
0.08856078237295151 0.03944256156682968 0.6500000357627869 224 219 202
0.08963882923126221 0.03944256156682968 0.6500000357627869 224 219 202
0.09071686863899231 0.03944256156682968 0.6500000357627869 225 220 203
0.09165368229150772 0.039381884038448334 0.6490000486373901 224 219 202
0.0927300676703453 0.039381884038448334 0.6490000486373901 224 219 202
