ply
format ascii 1.0
element vertex 42
property float32 x
property float32 y
property float32 z
property uchar red
property uchar green
property uchar blue
property uchar corner
end_header
-0.00045447712182067335 -0.06405407935380936 0.9300000667572021 136 142 135 0
0.00023104609863366932 -0.06405407935380936 0.9300000667572021 142 148 141 0
0.0009165692608803511 -0.06405407935380936 0.9300000667572021 157 158 155 0 
0.0016020924085751176 -0.06405407935380936 0.9300000667572021 159 160 157 0 
0.002287615556269884 -0.06405407935380936 0.9300000667572021 158 160 154 0 
0.0029731388203799725 -0.06405407935380936 0.9300000667572021 155 157 151 0 
0.003658662084490061 -0.06405407935380936 0.9300000667572021 155 157 151 0 
-0.0018294493202120066 -0.06350381672382355 0.9320000410079956 163 168 164 0 
-0.0011424518888816237 -0.06350381672382355 0.9320000410079956 158 163 159 0 
-0.00045447712182067335 -0.06336754560470581 0.9300000667572021 144 149 145 0 
0.00023104609863366932 -0.06336754560470581 0.9300000667572021 144 149 145 0 
0.0009165692608803511 -0.06336754560470581 0.9300000667572021 144 148 147 0 
0.0016020924085751176 -0.06336754560470581 0.9300000667572021 148 152 151 0 
0.002287615556269884 -0.06336754560470581 0.9300000667572021 160 160 154 0 
0.0029731388203799725 -0.06336754560470581 0.9300000667572021 166 166 160 0 
0.003658662084490061 -0.06336754560470581 0.9300000667572021 166 166 160 0 
-0.0018294493202120066 -0.06281580030918121 0.9320000410079956 159 164 160 0 
-0.0011424518888816237 -0.06281580030918121 0.9320000410079956 149 154 150 0 
-0.00045447712182067335 -0.06268100440502167 0.9300000667572021 139 144 140 0 
0.00023104609863366932 -0.06268100440502167 0.9300000667572021 136 141 137 0 
0.0009165692608803511 -0.06268100440502167 0.9300000667572021 132 137 133 0 
0.0016020924085751176 -0.06268100440502167 0.9300000667572021 136 141 137 0 
0.002287615556269884 -0.06268100440502167 0.9300000667572021 151 151 145 0 
0.0029731388203799725 -0.06268100440502167 0.9300000667572021 164 164 158 0 
0.003658662084490061 -0.06268100440502167 0.9300000667572021 171 170 162 0 
0.004348856396973133 -0.06274840235710144 0.9310000538825989 171 170 162 0 
-0.010795052163302898 -0.06232777610421181 0.9350000619888306 157 163 156 0 
-0.00938642118126154 -0.062127791345119476 0.9320000410079956 150 156 149 0 
-0.008699423633515835 -0.062127791345119476 0.9320000410079956 148 154 147 0 
-0.00799523200839758 -0.06199447065591812 0.9300000667572021 143 149 142 0 
-0.007309708744287491 -0.06199447065591812 0.9300000667572021 142 148 141 0 
-0.0066241854801774025 -0.06199447065591812 0.9300000667572021 142 148 141 0 
-0.005919505842030048 -0.06179448962211609 0.9270000457763672 145 145 145 0 
-0.005236193537712097 -0.06179448962211609 0.9270000457763672 154 154 154 0 
-0.004543059039860964 -0.061661168932914734 0.9250000715255737 160 161 158 0 
-0.00386122171767056 -0.061661168932914734 0.9250000715255737 159 160 157 0 
-0.0031759466510266066 -0.06159450486302376 0.9240000247955322 158 163 159 0 
-0.002494846237823367 -0.06159450486302376 0.9240000247955322 161 166 162 0 
-0.0018137458246201277 -0.06159450486302376 0.9240000247955322 161 162 159 0 
-0.0011326454114168882 -0.06159450486302376 0.9240000247955322 147 148 145 0 
-0.0004515449982136488 -0.06159450486302376 0.9240000247955322 136 137 134 0 
0.00022955545864533633 -0.06159450486302376 0.9240000247955322 129 130 127 0 
