ply
format ascii 1.0
element vertex 691
property float32 x
property float32 y
property float32 z
property uchar red
property uchar green
property uchar blue
end_header
0.028223281726241112 0.12545396387577057 1.3600000143051147 33 33 27
0.03042464330792427 0.12545396387577057 1.3600000143051147 33 33 27
0.03262600302696228 0.12545396387577057 1.3600000143051147 33 33 27
0.03482736647129059 0.12545396387577057 1.3600000143051147 34 34 28
0.0370287261903286 0.12545396387577057 1.3600000143051147 37 35 29
0.039230089634656906 0.12545396387577057 1.3600000143051147 40 38 32
0.041431449353694916 0.12545396387577057 1.3600000143051147 53 41 37
0.043632809072732925 0.12545396387577057 1.3600000143051147 56 44 40
0.045834168791770935 0.12545396387577057 1.3600000143051147 71 54 46
0.04792957752943039 0.12517723441123962 1.3570001125335693 211 194 186
0.050126079469919205 0.12517723441123962 1.3570001125335693 205 202 192
0.05232258513569832 0.12517723441123962 1.3570001125335693 205 202 192
0.05451909080147743 0.12517723441123962 1.3570001125335693 205 202 192
0.056715596467256546 0.12517723441123962 1.3570001125335693 205 202 192
0.05891210213303566 0.12517723441123962 1.3570001125335693 205 202 192
0.061108607798814774 0.12517723441123962 1.3570001125335693 205 202 192
0.06330510973930359 0.12517723441123962 1.3570001125335693 207 202 192
0.0655016228556633 0.12517723441123962 1.3570001125335693 207 202 192
0.06769812107086182 0.12517723441123962 1.3570001125335693 207 202 192
0.06974010914564133 0.12490050494670868 1.3540000915527344 207 202 192
0.07177238166332245 0.12462376058101654 1.3510000705718994 207 202 192
0.07395917177200317 0.12462376058101654 1.3510000705718994 207 202 192
0.07603324204683304 0.12443927675485611 1.349000096321106 207 203 191
0.0782167986035347 0.12443927675485611 1.349000096321106 207 203 191
0.08022155612707138 0.12416253238916397 1.346000075340271 205 201 189
0.08221659809350967 0.12388579547405243 1.343000054359436 205 201 189
0.08439043909311295 0.12388579547405243 1.343000054359436 203 199 187
0.08617754280567169 0.12333232164382935 1.3370000123977661 203 199 187
0.08834168314933777 0.12333232164382935 1.3370000123977661 200 198 186
0.09050581604242325 0.12333232164382935 1.3370000123977661 201 199 187
0.09246201813220978 0.1230555921792984 1.3340001106262207 203 201 189
0.09462128579616547 0.1230555921792984 1.3340001106262207 203 201 189
0.09656292200088501 0.12277885526418686 1.3310000896453857 119 108 97
0.09849483519792557 0.12250211834907532 1.3280000686645508 112 101 90
0.10064440220594406 0.12250211834907532 1.3280000686645508 151 135 130
0.10256174206733704 0.12222537398338318 1.3250000476837158 191 175 170
0.10470645874738693 0.12222537398338318 1.3250000476837158 204 197 192
0.10660924017429352 0.12194863706827164 1.3220000267028809 210 203 198
0.10858456790447235 0.12176414579153061 1.3200000524520874 207 204 194
0.1107211783528328 0.12176414579153061 1.3200000524520874 201 198 188
0.11260131001472473 0.12148740887641907 1.3170000314712524 202 199 189
0.11473306268453598 0.12148740887641907 1.3170000314712524 202 199 189
0.11686482280492783 0.12148740887641907 1.3170000314712524 203 200 190
0.11872551590204239 0.12121067196130753 1.3140000104904175 203 200 190
0.12085242569446564 0.12121067196130753 1.3140000104904175 203 200 190
0.12241778522729874 0.12065720558166504 1.308000087738037 205 202 192
0.12434455752372742 0.12047271430492401 1.3060001134872437 207 203 191
0.12645851075649261 0.12047271430492401 1.3060001134872437 207 203 191
0.12827712297439575 0.12019597738981247 1.3030000925064087 209 203 191
0.13038621842861176 0.12019597738981247 1.3030000925064087 209 203 191
0.13249531388282776 0.12019597738981247 1.3030000925064087 209 203 191
0.13460442423820496 0.12019597738981247 1.3030000925064087 207 201 189
0.13671351969242096 0.12019597738981247 1.3030000925064087 207 201 189
0.1381833702325821 0.11964250355958939 1.2970000505447388 206 200 188
0.1397419571876526 0.11918127536773682 1.2920000553131104 202 198 186
0.14183324575424194 0.11918127536773682 1.2920000553131104 209 205 193
0.14325615763664246 0.11862779408693314 1.2860000133514404 145 131 121
0.14533773064613342 0.11862779408693314 1.2860000133514404 53 39 29
0.14650225639343262 0.11788984388113022 1.2780001163482666 58 41 33
0.14798961579799652 0.11742860078811646 1.2730000019073486 54 37 29
0.15005014836788177 0.11742860078811646 1.2730000019073486 40 33 28
0.1511547863483429 0.11669065058231354 1.2650001049041748 39 32 27
0.1525968313217163 0.11622942239046097 1.2600001096725464 34 32 26
0.15463633835315704 0.11622942239046097 1.2600001096725464 35 33 27
0.15605409443378448 0.1157681941986084 1.255000114440918 35 32 29
0.15808551013469696 0.1157681941986084 1.255000114440918 34 31 28
0.15947896242141724 0.11530695855617523 1.25 33 32 29
0.16085627675056458 0.11484573036432266 1.2450000047683716 33 32 29
0.16287147998809814 0.11484573036432266 1.2450000047683716 33 32 29
0.1648867130279541 0.11484573036432266 1.2450000047683716 33 32 29
0.16690193116664886 0.11484573036432266 1.2450000047683716 34 33 30
0.16891713440418243 0.11484573036432266 1.2450000047683716 34 33 30
0.1709323525428772 0.11484573036432266 1.2450000047683716 35 34 31
0.17294758558273315 0.11484573036432266 1.2450000047683716 36 35 32
0.17496278882026672 0.11484573036432266 1.2450000047683716 38 37 34
0.1772623211145401 0.11503022909164429 1.2470000982284546 40 39 36
0.17999961972236633 0.11549145728349686 1.252000093460083 44 42 36
0.18202617764472961 0.11549145728349686 1.252000093460083 50 48 42
0.18493475019931793 0.11604492366313934 1.2580000162124634 66 55 49
0.1869710087776184 0.11604492366313934 1.2580000162124634 74 63 57
0.18975849449634552 0.11650615185499191 1.2630000114440918 81 67 57
0.19256216287612915 0.11696737259626389 1.2680000066757202 155 141 131
0.19461460411548615 0.11696737259626389 1.2680000066757202 214 210 198
0.19697727262973785 0.11715187877416611 1.2700001001358032 207 203 191
0.1995030790567398 0.11742860078811646 1.2730000019073486 207 205 193
0.20156362652778625 0.11742860078811646 1.2730000019073486 207 205 193
0.20410403609275818 0.1177053451538086 1.2760000228881836 209 205 193
0.20697729289531708 0.11816656589508057 1.281000018119812 209 205 193
0.20905078947544098 0.11816656589508057 1.281000018119812 211 205 193
0.21112428605556488 0.11816656589508057 1.281000018119812 211 205 193
0.2131977677345276 0.11816656589508057 1.281000018119812 211 205 193
0.2152712643146515 0.11816656589508057 1.281000018119812 211 205 193
0.217344731092453 0.11816656589508057 1.281000018119812 213 204 193
0.21890439093112946 0.11788984388113022 1.2780001163482666 213 204 193
0.22097302973270416 0.11788984388113022 1.2780001163482666 213 204 193
0.22304165363311768 0.11788984388113022 1.2780001163482666 213 204 193
0.22475798428058624 0.1177053451538086 1.2760000228881836 213 204 193
0.22682338953018188 0.1177053451538086 1.2760000228881836 213 204 193
0.22888876497745514 0.1177053451538086 1.2760000228881836 213 204 193
0.23041117191314697 0.11742860078811646 1.2730000019073486 213 204 193
0.23247170448303223 0.11742860078811646 1.2730000019073486 213 204 193
0.23453225195407867 0.11742860078811646 1.2730000019073486 213 204 193
0.23603524267673492 0.11715187877416611 1.2700001001358032 210 204 192
0.23809091746807098 0.11715187877416611 1.2700001001358032 209 203 191
0.2392011433839798 0.11669065058231354 1.2650001049041748 205 201 189
0.2412487417459488 0.11669065058231354 1.2650001049041748 203 199 187
0.24233467876911163 0.11622942239046097 1.2600001096725464 203 199 192
0.24398626387119293 0.11604492366313934 1.2580000162124634 192 188 181
0.2460225224494934 0.11604492366313934 1.2580000162124634 76 62 52
0.24687568843364716 0.11549145728349686 1.252000093460083 59 45 35
0.24890224635601044 0.11549145728349686 1.252000093460083 56 46 37
0.25052791833877563 0.11530695855617523 1.25 53 43 34
0.2519451379776001 0.11503022909164429 1.2470000982284546 48 42 35
0.2539635896682739 0.11503022909164429 1.2470000982284546 48 42 35
0.25598204135894775 0.11503022909164429 1.2470000982284546 46 41 36
0.2569659948348999 0.11456900089979172 1.2420001029968262 47 42 37
0.25897637009620667 0.11456900089979172 1.2420001029968262 49 43 41
0.26056644320487976 0.11438450217247009 1.2400000095367432 49 43 41
0.26257357001304626 0.11438450217247009 1.2400000095367432 49 43 41
0.2645806670188904 0.11438450217247009 1.2400000095367432 50 44 42
0.26594287157058716 0.11410777270793915 1.2370001077651978 52 45 40
0.26794514060020447 0.11410777270793915 1.2370001077651978 53 46 41
0.2695109248161316 0.11392327398061752 1.2350000143051147 56 50 43
0.27150994539260864 0.11392327398061752 1.2350000143051147 56 50 43
0.2735089659690857 0.11392327398061752 1.2350000143051147 59 52 47
0.27483877539634705 0.11364654451608658 1.2320001125335693 59 52 47
0.2768329679965973 0.11364654451608658 1.2320001125335693 63 54 49
0.27837446331977844 0.11346204578876495 1.2300000190734863 65 56 51
0.2803654074668884 0.11346204578876495 1.2300000190734863 74 57 54
0.2823563516139984 0.11346204578876495 1.2300000190734863 75 58 55
0.28365376591682434 0.11318531632423401 1.227000117301941 75 55 50
0.28563985228538513 0.11318531632423401 1.227000117301941 84 64 59
0.2876259386539459 0.11318531632423401 1.227000117301941 87 64 60
0.2896120250225067 0.11318531632423401 1.227000117301941 101 78 74
0.2915981113910675 0.11318531632423401 1.227000117301941 118 104 100
0.2931056022644043 0.11300081759691238 1.225000023841858 151 137 133
0.29460668563842773 0.11281632632017136 1.2230000495910645 137 126 120
0.2965863049030304 0.11281632632017136 1.2230000495910645 101 90 84
0.29783353209495544 0.11253958940505981 1.2200000286102295 86 67 59
0.2998082637786865 0.11253958940505981 1.2200000286102295 75 56 48
0.30128830671310425 0.11235509812831879 1.218000054359436 70 53 45
0.30251285433769226 0.11207836121320724 1.215000033378601 68 51 43
0.30447953939437866 0.11207836121320724 1.215000033378601 62 45 42
0.30518510937690735 0.11161713302135468 1.2100000381469727 62 45 42
0.3071436285972595 0.11161713302135468 1.2100000381469727 60 47 46
0.30731400847435 0.11097142100334167 1.2030000686645508 57 44 43
0.3074617385864258 0.11032570153474808 1.196000099182129 54 44 42
0.3093976378440857 0.11032570153474808 1.196000099182129 51 41 39
0.30951136350631714 0.10967997461557388 1.1890000104904175 51 41 39
0.3109120726585388 0.10949549078941345 1.187000036239624 51 41 39
0.31283336877822876 0.10949549078941345 1.187000036239624 46 40 38
0.31422439217567444 0.10931099951267242 1.1850000619888306 45 39 37
0.3161424994468689 0.10931099951267242 1.1850000619888306 44 41 38
0.3175238072872162 0.1091265082359314 1.183000087738037 44 41 38
0.31862857937812805 0.10884977132081985 1.1800000667572021 43 40 37
0.32053855061531067 0.10884977132081985 1.1800000667572021 44 41 38
0.32244858145713806 0.10884977132081985 1.1800000667572021 44 40 40
0.32435858249664307 0.10884977132081985 1.1800000667572021 45 41 41
0.32626858353614807 0.10884977132081985 1.1800000667572021 49 46 43
0.32817861437797546 0.10884977132081985 1.1800000667572021 54 51 48
0.3309277892112732 0.1091265082359314 1.183000087738037 62 53 48
0.3328426778316498 0.1091265082359314 1.183000087738037 71 62 57
0.3353234827518463 0.10931099951267242 1.1850000619888306 83 68 60
0.3383799195289612 0.10967997461557388 1.1890000104904175 92 77 69
0.34030449390411377 0.10967997461557388 1.1890000104904175 191 182 177
0.34366822242736816 0.11014120280742645 1.194000005722046 210 201 196
0.3470481038093567 0.11060243099927902 1.1990000009536743 207 202 197
0.3489888608455658 0.11060243099927902 1.1990000009536743 209 204 199
0.3521004021167755 0.11097142100334167 1.2030000686645508 213 206 196
0.35404762625694275 0.11097142100334167 1.2030000686645508 213 206 196
0.35747450590133667 0.11143264919519424 1.2080000638961792 216 206 197
0.3600248694419861 0.11161713302135468 1.2100000381469727 215 205 196
0.36198344826698303 0.11161713302135468 1.2100000381469727 218 206 197
0.3639419972896576 0.11161713302135468 1.2100000381469727 218 206 197
0.3668077886104584 0.11189387738704681 1.2130000591278076 218 206 197
0.36877119541168213 0.11189387738704681 1.2130000591278076 220 208 199
0.3707346022129059 0.11189387738704681 1.2130000591278076 218 206 197
0.3717762529850006 0.11161713302135468 1.2100000381469727 220 208 199
0.3731170892715454 0.11143264919519424 1.2080000638961792 220 208 199
0.3750724196434021 0.11143264919519424 1.2080000638961792 218 206 197
0.3764035403728485 0.11124815791845322 1.2060000896453857 220 208 199
0.376787006855011 0.11078692972660065 1.2010000944137573 220 208 199
0.37873098254203796 0.11078692972660065 1.2010000944137573 220 208 199
0.3784562051296234 0.11014120280742645 1.194000005722046 218 206 197
0.38038885593414307 0.11014120280742645 1.194000005722046 220 208 199
0.3816811442375183 0.10995671153068542 1.1920000314712524 220 208 199
-0.06522537767887115 0.13422515988349915 1.4300000667572021 64 50 40
-0.06291072070598602 0.13422515988349915 1.4300000667572021 55 49 37
-0.060299426317214966 0.13356812298297882 1.4230000972747803 54 48 36
-0.057751551270484924 0.13300493359565735 1.4170000553131104 56 46 37
-0.05545792728662491 0.13300493359565735 1.4170000553131104 55 45 36
-0.052901674062013626 0.13234789669513702 1.4100000858306885 57 43 39
-0.050619374960660934 0.13234789669513702 1.4100000858306885 197 183 179
-0.0482342392206192 0.1320662945508957 1.4070000648498535 203 199 192
-0.04585881158709526 0.13178470730781555 1.4040000438690186 202 198 191
-0.043586231768131256 0.13178470730781555 1.4040000438690186 205 200 190
-0.0412253700196743 0.1315031200647354 1.4010000228881836 204 199 189
-0.03895764425396919 0.1315031200647354 1.4010000228881836 207 202 192
-0.036689918488264084 0.1315031200647354 1.4010000228881836 205 200 190
-0.034348487854003906 0.13122153282165527 1.3980001211166382 207 200 190
-0.032085616141557693 0.13122153282165527 1.3980001211166382 209 202 192
-0.02982274629175663 0.13122153282165527 1.3980001211166382 209 202 192
-0.027559876441955566 0.13122153282165527 1.3980001211166382 209 202 192
-0.025297006592154503 0.13122153282165527 1.3980001211166382 209 203 191
-0.0229682307690382 0.1308460682630539 1.3940000534057617 209 203 191
-0.020711833611130714 0.1308460682630539 1.3940000534057617 207 201 189
-0.018455438315868378 0.1308460682630539 1.3940000534057617 209 203 191
-0.01619904302060604 0.1308460682630539 1.3940000534057617 209 203 191
-0.013942647725343704 0.1308460682630539 1.3940000534057617 209 203 191
-0.011661102063953876 0.13056448101997375 1.3910000324249268 207 201 189
-0.009368975646793842 0.13000130653381348 1.3850001096725464 207 201 189
-0.007127148099243641 0.13000130653381348 1.3850001096725464 207 201 189
-0.004874738398939371 0.12971970438957214 1.3820000886917114 211 205 193
-0.0026377670001238585 0.12971970438957214 1.3820000886917114 188 177 164
-0.0003990552213508636 0.12915651500225067 1.3760000467300415 54 43 30
0.001824218430556357 0.12887492775917053 1.3730000257492065 58 42 30
0.004046622198075056 0.12887492775917053 1.3730000257492065 52 36 24
0.006237064488232136 0.1282178908586502 1.3660000562667847 40 35 25
0.008448137901723385 0.1282178908586502 1.3660000562667847 39 34 24
0.01065921038389206 0.1282178908586502 1.3660000562667847 32 33 25
0.012842018157243729 0.12793628871440887 1.3630000352859497 32 33 25
0.015048235654830933 0.12793628871440887 1.3630000352859497 32 33 25
0.017216475680470467 0.12765470147132874 1.3600000143051147 31 32 24
0.019417835399508476 0.12765470147132874 1.3600000143051147 31 31 25
0.021619198843836784 0.12765470147132874 1.3600000143051147 31 31 25
0.023820560425519943 0.12765470147132874 1.3600000143051147 32 32 26
0.026021920144557953 0.12765470147132874 1.3600000143051147 32 32 26
0.028223281726241112 0.12765470147132874 1.3600000143051147 32 32 26
0.03042464330792427 0.12765470147132874 1.3600000143051147 32 32 26
0.03262600302696228 0.12765470147132874 1.3600000143051147 33 33 27
0.03482736647129059 0.12765470147132874 1.3600000143051147 34 34 28
0.0370287261903286 0.12765470147132874 1.3600000143051147 37 35 29
0.039230089634656906 0.12765470147132874 1.3600000143051147 40 38 32
0.041431449353694916 0.12765470147132874 1.3600000143051147 55 42 36
0.043632809072732925 0.12765470147132874 1.3600000143051147 57 44 38
0.045834168791770935 0.12765470147132874 1.3600000143051147 87 73 63
0.04803553223609924 0.12765470147132874 1.3600000143051147 220 206 196
0.05023689195513725 0.12765470147132874 1.3600000143051147 203 200 190
0.05232258513569832 0.1273731142282486 1.3570001125335693 205 202 192
0.05451909080147743 0.1273731142282486 1.3570001125335693 205 202 192
0.056715596467256546 0.1273731142282486 1.3570001125335693 205 202 192
0.05891210213303566 0.1273731142282486 1.3570001125335693 205 202 192
0.061108607798814774 0.1273731142282486 1.3570001125335693 205 202 192
0.06330510973930359 0.1273731142282486 1.3570001125335693 208 203 193
0.0655016228556633 0.1273731142282486 1.3570001125335693 207 202 192
0.06769812107086182 0.1273731142282486 1.3570001125335693 207 202 192
0.06974010914564133 0.12709152698516846 1.3540000915527344 207 202 192
0.07193175703287125 0.12709152698516846 1.3540000915527344 207 202 192
0.07412340492010117 0.12709152698516846 1.3540000915527344 207 202 192
0.07603324204683304 0.12662220001220703 1.349000096321106 207 203 191
0.0782167986035347 0.12662220001220703 1.349000096321106 207 203 191
0.08022155612707138 0.1263406127691269 1.346000075340271 207 203 191
0.08221659809350967 0.12605902552604675 1.343000054359436 205 201 189
0.08439043909311295 0.12605902552604675 1.343000054359436 205 201 189
0.08617754280567169 0.12549583613872528 1.3370000123977661 204 200 188
0.08814346790313721 0.12521424889564514 1.3340001106262207 201 199 187
0.09030274301767349 0.12521424889564514 1.3340001106262207 201 199 187
0.09246201813220978 0.12521424889564514 1.3340001106262207 198 195 185
0.09462128579616547 0.12521424889564514 1.3340001106262207 208 205 195
0.09656292200088501 0.1249326542019844 1.3310000896453857 94 78 68
0.09849483519792557 0.12465106695890427 1.3280000686645508 63 47 37
0.10064440220594406 0.12465106695890427 1.3280000686645508 74 47 41
0.10232952982187271 0.1240878775715828 1.3220000267028809 79 52 46
0.10446938872337341 0.1240878775715828 1.3220000267028809 94 74 69
0.10660924017429352 0.1240878775715828 1.3220000267028809 125 105 100
0.10858456790447235 0.1239001527428627 1.3200000524520874 163 150 144
0.1107211783528328 0.1239001527428627 1.3200000524520874 196 183 177
0.11260131001472473 0.12361855804920197 1.3170000314712524 208 203 193
0.11473306268453598 0.12361855804920197 1.3170000314712524 209 204 194
0.11686482280492783 0.12361855804920197 1.3170000314712524 206 203 193
0.11872551590204239 0.12333696335554123 1.3140000104904175 203 200 190
0.12085242569446564 0.12333696335554123 1.3140000104904175 202 200 188
0.12241778522729874 0.12277378886938095 1.308000087738037 201 199 187
0.12434455752372742 0.12258606404066086 1.3060001134872437 202 200 188
0.12645851075649261 0.12258606404066086 1.3060001134872437 203 201 189
0.12827712297439575 0.12230446934700012 1.3030000925064087 207 201 189
0.13038621842861176 0.12230446934700012 1.3030000925064087 207 201 189
0.13249531388282776 0.12230446934700012 1.3030000925064087 209 203 191
0.13460442423820496 0.12230446934700012 1.3030000925064087 207 201 189
0.13671351969242096 0.12230446934700012 1.3030000925064087 206 200 188
0.1381833702325821 0.12174128741025925 1.2970000505447388 205 199 187
0.14006642997264862 0.12155356258153915 1.2950000762939453 203 199 187
0.14216259121894836 0.12155356258153915 1.2950000762939453 211 207 195
0.14325615763664246 0.12070877850055695 1.2860000133514404 104 90 80
0.14533773064613342 0.12070877850055695 1.2860000133514404 54 40 30
0.14650225639343262 0.11995787918567657 1.2780001163482666 56 41 33
0.14798961579799652 0.11948855221271515 1.2730000019073486 52 37 29
0.15005014836788177 0.11948855221271515 1.2730000019073486 40 33 28
0.1515132486820221 0.11901923269033432 1.2680000066757202 39 32 27
0.1525968313217163 0.11826833337545395 1.2600001096725464 35 33 27
0.15463633835315704 0.11826833337545395 1.2600001096725464 35 33 27
0.15605409443378448 0.11779901385307312 1.255000114440918 35 33 27
0.15808551013469696 0.11779901385307312 1.255000114440918 35 33 27
0.15973414480686188 0.11751741915941238 1.252000093460083 35 33 27
0.16111469268798828 0.11704809963703156 1.2470000982284546 35 33 27
0.16313312947750092 0.11704809963703156 1.2470000982284546 33 33 27
0.1648867130279541 0.11686036735773087 1.2450000047683716 33 33 27
0.16690193116664886 0.11686036735773087 1.2450000047683716 34 33 30
0.16891713440418243 0.11686036735773087 1.2450000047683716 35 34 31
0.1709323525428772 0.11686036735773087 1.2450000047683716 35 34 31
0.17294758558273315 0.11686036735773087 1.2450000047683716 36 35 32
0.17496278882026672 0.11686036735773087 1.2450000047683716 38 37 34
0.1772623211145401 0.11704809963703156 1.2470000982284546 40 39 36
0.17999961972236633 0.11751741915941238 1.252000093460083 49 44 39
0.18202617764472961 0.11751741915941238 1.252000093460083 54 49 44
0.18493475019931793 0.11808059364557266 1.2580000162124634 71 58 52
0.1869710087776184 0.11808059364557266 1.2580000162124634 75 62 56
0.18975849449634552 0.11854991316795349 1.2630000114440918 86 70 60
0.19256216287612915 0.11901923269033432 1.2680000066757202 192 176 166
0.19461460411548615 0.11901923269033432 1.2680000066757202 208 206 194
0.19697727262973785 0.1192069724202156 1.2700001001358032 205 203 191
0.1999732404947281 0.11977014690637589 1.2760000228881836 207 205 193
0.20203864574432373 0.11977014690637589 1.2760000228881836 207 205 193
0.2044239640235901 0.11995787918567657 1.2780001163482666 209 205 193
0.20697729289531708 0.12023946642875671 1.281000018119812 209 205 193
0.20905078947544098 0.12023946642875671 1.281000018119812 211 205 193
0.21161872148513794 0.12052105367183685 1.284000039100647 211 205 193
0.2131977677345276 0.12023946642875671 1.281000018119812 211 205 193
0.2152712643146515 0.12023946642875671 1.281000018119812 211 205 193
0.217344731092453 0.12023946642875671 1.281000018119812 211 205 193
0.21890439093112946 0.11995787918567657 1.2780001163482666 211 205 193
0.22097302973270416 0.11995787918567657 1.2780001163482666 213 204 193
0.22304165363311768 0.11995787918567657 1.2780001163482666 213 204 193
0.22511029243469238 0.11995787918567657 1.2780001163482666 213 204 193
0.2271789312362671 0.11995787918567657 1.2780001163482666 213 204 193
0.22888876497745514 0.11977014690637589 1.2760000228881836 214 205 194
0.23095417022705078 0.11977014690637589 1.2760000228881836 213 204 193
0.23301956057548523 0.11977014690637589 1.2760000228881836 213 204 193
0.23453225195407867 0.11948855221271515 1.2730000019073486 213 204 193
0.23603524267673492 0.1192069724202156 1.2700001001358032 209 203 191
0.23809091746807098 0.1192069724202156 1.2700001001358032 209 203 191
0.2392011433839798 0.11873765289783478 1.2650001049041748 205 201 189
0.2412487417459488 0.11873765289783478 1.2650001049041748 202 198 186
0.24233467876911163 0.11826833337545395 1.2600001096725464 206 202 195
0.24398626387119293 0.11808059364557266 1.2580000162124634 166 162 155
0.2460225224494934 0.11808059364557266 1.2580000162124634 68 52 42
0.24687568843364716 0.11751741915941238 1.252000093460083 59 43 33
0.24890224635601044 0.11751741915941238 1.252000093460083 53 43 34
0.25052791833877563 0.1173296868801117 1.25 52 42 33
0.2519451379776001 0.11704809963703156 1.2470000982284546 44 40 33
0.2539635896682739 0.11704809963703156 1.2470000982284546 44 40 33
0.2555714547634125 0.11686036735773087 1.2450000047683716 45 40 35
0.25655218958854675 0.11639104783535004 1.2400000095367432 46 41 36
0.25855931639671326 0.11639104783535004 1.2400000095367432 46 40 38
0.25993606448173523 0.1161094680428505 1.2370001077651978 46 40 38
0.26193833351135254 0.1161094680428505 1.2370001077651978 46 40 38
0.26394057273864746 0.1161094680428505 1.2370001077651978 46 40 38
0.26594287157058716 0.1161094680428505 1.2370001077651978 46 41 36
0.26794514060020447 0.1161094680428505 1.2370001077651978 49 44 39
0.2695109248161316 0.11592172831296921 1.2350000143051147 50 45 40
0.27150994539260864 0.11592172831296921 1.2350000143051147 50 45 40
0.2728446125984192 0.11564014852046967 1.2320001125335693 52 46 44
0.27483877539634705 0.11564014852046967 1.2320001125335693 53 47 45
0.2768329679965973 0.11564014852046967 1.2320001125335693 56 48 46
0.27837446331977844 0.11545240879058838 1.2300000190734863 58 50 48
0.2803654074668884 0.11545240879058838 1.2300000190734863 61 51 49
0.2823563516139984 0.11545240879058838 1.2300000190734863 67 57 55
0.28365376591682434 0.11517082899808884 1.227000117301941 73 58 57
0.28563985228538513 0.11517082899808884 1.227000117301941 78 63 62
0.2876259386539459 0.11517082899808884 1.227000117301941 86 65 62
0.2896120250225067 0.11517082899808884 1.227000117301941 86 65 62
0.2915981113910675 0.11517082899808884 1.227000117301941 93 76 73
0.2931056022644043 0.11498309671878815 1.225000023841858 203 186 183
0.29460668563842773 0.11479537189006805 1.2230000495910645 206 201 196
0.2965863049030304 0.11479537189006805 1.2230000495910645 206 201 196
0.29783353209495544 0.11451377719640732 1.2200000286102295 199 188 182
0.2998082637786865 0.11451377719640732 1.2200000286102295 176 165 159
0.30128830671310425 0.11432605236768723 1.218000054359436 135 125 116
0.30201491713523865 0.1138567328453064 1.2130000591278076 102 92 83
0.3039783239364624 0.1138567328453064 1.2130000591278076 84 67 64
0.3046806752681732 0.11338741332292557 1.2080000638961792 66 49 46
0.3066359758377075 0.11338741332292557 1.2080000638961792 70 49 46
0.30731400847435 0.11291809380054474 1.2030000686645508 70 49 46
0.3074617385864258 0.11226104944944382 1.196000099182129 62 44 44
0.3093976378440857 0.11226104944944382 1.196000099182129 63 45 45
0.30951136350631714 0.1116039976477623 1.1890000104904175 58 46 42
0.3109120726585388 0.1114162728190422 1.187000036239624 58 46 42
0.31283336877822876 0.1114162728190422 1.187000036239624 53 46 41
0.31422439217567444 0.11122854799032211 1.1850000619888306 51 44 39
0.3161424994468689 0.11122854799032211 1.1850000619888306 49 44 39
0.3175238072872162 0.11104082316160202 1.183000087738037 47 42 37
0.31862857937812805 0.11075922846794128 1.1800000667572021 45 42 39
0.32053855061531067 0.11075922846794128 1.1800000667572021 47 44 41
0.32244858145713806 0.11075922846794128 1.1800000667572021 45 42 39
0.32435858249664307 0.11075922846794128 1.1800000667572021 47 44 41
0.32626858353614807 0.11075922846794128 1.1800000667572021 50 47 44
0.32817861437797546 0.11075922846794128 1.1800000667572021 55 52 49
0.3309277892112732 0.11104082316160202 1.183000087738037 63 55 48
0.3328426778316498 0.11104082316160202 1.183000087738037 72 64 57
0.3353234827518463 0.11122854799032211 1.1850000619888306 83 68 60
0.3383799195289612 0.1116039976477623 1.1890000104904175 105 90 82
0.34030449390411377 0.1116039976477623 1.1890000104904175 205 198 193
0.34366822242736816 0.11207331717014313 1.194000005722046 208 201 196
0.3470481038093567 0.11254263669252396 1.1990000009536743 208 203 198
0.3489888608455658 0.11254263669252396 1.1990000009536743 210 205 200
0.3515150249004364 0.11273036897182465 1.2010000944137573 213 206 196
0.35345903038978577 0.11273036897182465 1.2010000944137573 213 206 196
0.35688266158103943 0.11319968849420547 1.2060000896453857 216 206 197
0.3594297766685486 0.11338741332292557 1.2080000638961792 215 205 196
0.36138513684272766 0.11338741332292557 1.2080000638961792 216 206 197
0.36334046721458435 0.11338741332292557 1.2080000638961792 218 208 199
0.3668077886104584 0.1138567328453064 1.2130000591278076 216 206 197
0.3678591549396515 0.11357513815164566 1.2100000381469727 216 206 197
0.36981767416000366 0.11357513815164566 1.2100000381469727 216 206 197
0.3717762529850006 0.11357513815164566 1.2100000381469727 218 208 199
0.3731170892715454 0.11338741332292557 1.2080000638961792 218 208 199
0.3750724196434021 0.11338741332292557 1.2080000638961792 218 208 199
0.3764035403728485 0.11319968849420547 1.2060000896453857 216 206 197
0.376787006855011 0.11273036897182465 1.2010000944137573 218 208 199
0.37873098254203796 0.11273036897182465 1.2010000944137573 218 208 199
0.37909016013145447 0.11226104944944382 1.196000099182129 216 206 197
0.3810260593891144 0.11226104944944382 1.196000099182129 218 206 197
0.3816811442375183 0.11188559234142303 1.1920000314712524 220 208 199
-0.06754004955291748 0.13653917610645294 1.4300000667572021 66 48 36
-0.06508854031562805 0.13625271618366241 1.4270000457763672 68 50 38
-0.06277873367071152 0.13625271618366241 1.4270000457763672 64 53 42
-0.06017230078577995 0.13558435440063477 1.4200000762939453 66 55 44
-0.057629283517599106 0.1350114494562149 1.4140000343322754 64 52 43
-0.055340513586997986 0.1350114494562149 1.4140000343322754 60 48 39
-0.052901674062013626 0.1346295326948166 1.4100000858306885 68 55 49
-0.050619374960660934 0.1346295326948166 1.4100000858306885 209 196 190
-0.048131395131349564 0.13405664265155792 1.4040000438690186 199 195 188
-0.04576082155108452 0.1337701827287674 1.4010000228881836 202 198 191
-0.04349309578537941 0.1337701827287674 1.4010000228881836 202 199 189
-0.04113709554076195 0.13348375260829926 1.3980001211166382 202 199 189
-0.03887422755360603 0.13348375260829926 1.3980001211166382 205 200 190
-0.036689918488264084 0.1337701827287674 1.4010000228881836 205 200 190
-0.034348487854003906 0.13348375260829926 1.3980001211166382 207 202 192
-0.032085616141557693 0.13348375260829926 1.3980001211166382 205 200 190
-0.02982274629175663 0.13348375260829926 1.3980001211166382 209 202 192
-0.027559876441955566 0.13348375260829926 1.3980001211166382 209 202 192
-0.025297006592154503 0.13348375260829926 1.3980001211166382 207 200 190
-0.0229682307690382 0.13310182094573975 1.3940000534057617 207 200 190
-0.020711833611130714 0.13310182094573975 1.3940000534057617 207 201 189
-0.018455438315868378 0.13310182094573975 1.3940000534057617 209 203 191
-0.01619904302060604 0.13310182094573975 1.3940000534057617 207 201 189
-0.013942647725343704 0.13310182094573975 1.3940000534057617 209 203 191
-0.011661102063953876 0.1328153759241104 1.3910000324249268 207 201 189
-0.009368975646793842 0.13224248588085175 1.3850001096725464 207 201 189
-0.007127148099243641 0.13224248588085175 1.3850001096725464 206 200 188
-0.004874738398939371 0.1319560408592224 1.3820000886917114 211 205 193
-0.0026377670001238585 0.1319560408592224 1.3820000886917114 152 138 128
-0.0003990552213508636 0.13138313591480255 1.3760000467300415 52 38 28
0.001824218430556357 0.13109669089317322 1.3730000257492065 58 42 32
0.004046622198075056 0.13109669089317322 1.3730000257492065 52 36 26
0.006237064488232136 0.13042832911014557 1.3660000562667847 40 35 25
0.008448137901723385 0.13042832911014557 1.3660000562667847 39 34 24
0.01065921038389206 0.13042832911014557 1.3660000562667847 31 32 24
0.012842018157243729 0.13014188408851624 1.3630000352859497 31 32 24
0.015048235654830933 0.13014188408851624 1.3630000352859497 31 31 25
0.017216475680470467 0.1298554241657257 1.3600000143051147 31 31 25
0.019417835399508476 0.1298554241657257 1.3600000143051147 31 31 25
0.021619198843836784 0.1298554241657257 1.3600000143051147 31 31 25
0.023820560425519943 0.1298554241657257 1.3600000143051147 32 32 26
0.026021920144557953 0.1298554241657257 1.3600000143051147 32 32 26
0.028223281726241112 0.1298554241657257 1.3600000143051147 32 32 26
0.03042464330792427 0.1298554241657257 1.3600000143051147 32 32 26
0.03262600302696228 0.1298554241657257 1.3600000143051147 33 33 27
0.03482736647129059 0.1298554241657257 1.3600000143051147 34 34 28
0.0370287261903286 0.1298554241657257 1.3600000143051147 37 35 29
0.039230089634656906 0.1298554241657257 1.3600000143051147 40 38 32
0.041431449353694916 0.1298554241657257 1.3600000143051147 54 41 35
0.043632809072732925 0.1298554241657257 1.3600000143051147 60 47 41
0.045834168791770935 0.1298554241657257 1.3600000143051147 106 97 86
0.04803553223609924 0.1298554241657257 1.3600000143051147 221 212 201
0.05023689195513725 0.1298554241657257 1.3600000143051147 203 200 190
0.05243825539946556 0.1298554241657257 1.3600000143051147 205 202 192
0.05463961511850357 0.1298554241657257 1.3600000143051147 205 202 192
0.05684097856283188 0.1298554241657257 1.3600000143051147 205 202 192
0.05904233828186989 0.1298554241657257 1.3600000143051147 205 202 192
0.061243701726198196 0.1298554241657257 1.3600000143051147 205 202 192
0.06330510973930359 0.12956899404525757 1.3570001125335693 207 202 192
0.0655016228556633 0.12956899404525757 1.3570001125335693 207 202 192
0.06784778088331223 0.1298554241657257 1.3600000143051147 207 202 192
0.06989463418722153 0.12956899404525757 1.3570001125335693 208 203 193
0.07209113240242004 0.12956899404525757 1.3570001125335693 208 203 193
0.07428763806819916 0.12956899404525757 1.3570001125335693 207 202 192
0.0761459693312645 0.1289961040019989 1.3510000705718994 207 203 191
0.07833275943994522 0.1289961040019989 1.3510000705718994 207 203 191
0.08040035516023636 0.12880513072013855 1.349000096321106 207 203 191
0.08221659809350967 0.12823224067687988 1.343000054359436 207 203 191
0.08439043909311295 0.12823224067687988 1.343000054359436 205 201 189
0.08637091517448425 0.12794579565525055 1.340000033378601 204 200 188
0.08814346790313721 0.12737290561199188 1.3340001106262207 203 199 187
0.09030274301767349 0.12737290561199188 1.3340001106262207 202 198 186
0.09246201813220978 0.12737290561199188 1.3340001106262207 199 196 186
0.09462128579616547 0.12737290561199188 1.3340001106262207 202 199 189
0.09656292200088501 0.12708646059036255 1.3310000896453857 79 60 52
0.09849483519792557 0.12680001556873322 1.3280000686645508 65 46 38
0.10064440220594406 0.12680001556873322 1.3280000686645508 71 48 39
0.10232952982187271 0.12622711062431335 1.3220000267028809 70 47 38
0.10446938872337341 0.12622711062431335 1.3220000267028809 61 42 34
0.10660924017429352 0.12622711062431335 1.3220000267028809 66 47 39
0.10858456790447235 0.1260361522436142 1.3200000524520874 67 47 42
0.1107211783528328 0.1260361522436142 1.3200000524520874 77 57 52
0.11260131001472473 0.12574970722198486 1.3170000314712524 103 81 74
0.11447171121835709 0.12546326220035553 1.3140000104904175 145 123 116
0.11659861356019974 0.12546326220035553 1.3140000104904175 177 166 160
0.1184544563293457 0.1251768171787262 1.311000108718872 204 193 187
0.12057651579380035 0.1251768171787262 1.311000108718872 207 204 194
0.12241778522729874 0.12489037215709686 1.308000087738037 208 205 195
0.12434455752372742 0.1246994137763977 1.3060001134872437 205 203 191
0.12645851075649261 0.1246994137763977 1.3060001134872437 201 199 187
0.12827712297439575 0.12441296875476837 1.3030000925064087 202 200 188
0.13038621842861176 0.12441296875476837 1.3030000925064087 201 199 187
0.13249531388282776 0.12441296875476837 1.3030000925064087 205 201 189
0.1342945098876953 0.12412651628255844 1.3000000715255737 205 201 189
0.13639874756336212 0.12412651628255844 1.3000000715255737 204 200 188
0.1381833702325821 0.12384007126092911 1.2970000505447388 203 199 187
0.14006642997264862 0.12364911288022995 1.2950000762939453 200 197 187
0.14216259121894836 0.12364911288022995 1.2950000762939453 208 205 195
0.14325615763664246 0.12278976291418076 1.2860000133514404 87 73 63
0.14533773064613342 0.12278976291418076 1.2860000133514404 57 43 33
0.14650225639343262 0.12202592194080353 1.2780001163482666 56 41 33
0.14798961579799652 0.12154849618673325 1.2730000019073486 52 37 29
0.15005014836788177 0.12154849618673325 1.2730000019073486 43 35 28
0.1515132486820221 0.12107109278440475 1.2680000066757202 42 34 27
0.1525968313217163 0.12030724436044693 1.2600001096725464 38 33 28
0.15463633835315704 0.12030724436044693 1.2600001096725464 37 32 27
0.15605409443378448 0.11982983350753784 1.255000114440918 35 33 27
0.15808551013469696 0.11982983350753784 1.255000114440918 35 33 27
0.15973414480686188 0.11954338848590851 1.252000093460083 35 33 27
0.16111469268798828 0.11906597763299942 1.2470000982284546 36 34 28
0.16313312947750092 0.11906597763299942 1.2470000982284546 34 33 30
0.1648867130279541 0.11887500435113907 1.2450000047683716 33 32 29
0.16690193116664886 0.11887500435113907 1.2450000047683716 35 34 31
0.16891713440418243 0.11887500435113907 1.2450000047683716 35 34 31
0.1709323525428772 0.11887500435113907 1.2450000047683716 36 35 32
0.17294758558273315 0.11887500435113907 1.2450000047683716 36 35 32
0.17496278882026672 0.11887500435113907 1.2450000047683716 39 38 35
0.1772623211145401 0.11906597763299942 1.2470000982284546 41 40 37
0.17999961972236633 0.11954338848590851 1.252000093460083 49 44 39
0.18202617764472961 0.11954338848590851 1.252000093460083 56 51 46
0.18493475019931793 0.12011627107858658 1.2580000162124634 71 59 50
0.1869710087776184 0.12011627107858658 1.2580000162124634 76 64 55
0.18975849449634552 0.12059368193149567 1.2630000114440918 91 77 67
0.19256216287612915 0.12107109278440475 1.2680000066757202 215 201 191
0.19461460411548615 0.12107109278440475 1.2680000066757202 206 203 193
0.19697727262973785 0.1212620660662651 1.2700001001358032 206 203 193
0.1999732404947281 0.12183494865894318 1.2760000228881836 207 205 193
0.20203864574432373 0.12183494865894318 1.2760000228881836 207 205 193
0.2044239640235901 0.12202592194080353 1.2780001163482666 209 205 193
0.20697729289531708 0.12231235951185226 1.281000018119812 209 205 193
0.20905078947544098 0.12231235951185226 1.281000018119812 211 205 193
0.21161872148513794 0.1225988045334816 1.284000039100647 211 205 193
0.2131977677345276 0.12231235951185226 1.281000018119812 211 205 193
0.2152712643146515 0.12231235951185226 1.281000018119812 211 205 193
0.217344731092453 0.12231235951185226 1.281000018119812 211 205 193
0.21890439093112946 0.12202592194080353 1.2780001163482666 211 205 193
0.22097302973270416 0.12202592194080353 1.2780001163482666 211 205 193
0.22304165363311768 0.12202592194080353 1.2780001163482666 211 205 193
0.22511029243469238 0.12202592194080353 1.2780001163482666 211 205 193
0.2271789312362671 0.12202592194080353 1.2780001163482666 211 205 193
0.22888876497745514 0.12183494865894318 1.2760000228881836 211 205 193
0.23095417022705078 0.12183494865894318 1.2760000228881836 211 205 193
0.23301956057548523 0.12183494865894318 1.2760000228881836 211 205 193
0.23453225195407867 0.12154849618673325 1.2730000019073486 210 204 192
0.23603524267673492 0.1212620660662651 1.2700001001358032 209 203 191
0.23809091746807098 0.1212620660662651 1.2700001001358032 207 201 189
0.2392011433839798 0.12078465521335602 1.2650001049041748 205 201 189
0.2412487417459488 0.12078465521335602 1.2650001049041748 202 198 186
0.24233467876911163 0.12030724436044693 1.2600001096725464 208 202 195
0.24398626387119293 0.12011627107858658 1.2580000162124634 136 130 123
0.2460225224494934 0.12011627107858658 1.2580000162124634 61 44 36
0.2464812994003296 0.11935241520404816 1.25 58 41 33
0.2485046088695526 0.11935241520404816 1.25 50 43 33
0.24992667138576508 0.11906597763299942 1.2470000982284546 49 42 32
0.25154101848602295 0.11887500435113907 1.2450000047683716 44 39 34
0.2535562515258789 0.11887500435113907 1.2450000047683716 43 38 33
0.2555714547634125 0.11887500435113907 1.2450000047683716 42 40 34
0.25655218958854675 0.11839759349822998 1.2400000095367432 43 41 35
0.25855931639671326 0.11839759349822998 1.2400000095367432 43 40 37
0.25993606448173523 0.11811116337776184 1.2370001077651978 43 40 37
0.26193833351135254 0.11811116337776184 1.2370001077651978 43 40 37
0.26394057273864746 0.11811116337776184 1.2370001077651978 43 40 37
0.26594287157058716 0.11811116337776184 1.2370001077651978 42 40 34
0.26794514060020447 0.11811116337776184 1.2370001077651978 43 41 35
0.2695109248161316 0.11792019009590149 1.2350000143051147 45 43 37
0.27150994539260864 0.11792019009590149 1.2350000143051147 45 43 37
0.2728446125984192 0.11763375252485275 1.2320001125335693 47 44 41
0.27483877539634705 0.11763375252485275 1.2320001125335693 49 46 43
0.2768329679965973 0.11763375252485275 1.2320001125335693 49 46 43
0.27837446331977844 0.1174427792429924 1.2300000190734863 51 48 45
0.2803654074668884 0.1174427792429924 1.2300000190734863 58 50 48
0.2823563516139984 0.1174427792429924 1.2300000190734863 60 52 50
0.28365376591682434 0.11715634167194366 1.227000117301941 69 56 55
0.28563985228538513 0.11715634167194366 1.227000117301941 73 60 59
0.2876259386539459 0.11715634167194366 1.227000117301941 84 65 62
0.2896120250225067 0.11715634167194366 1.227000117301941 85 66 63
0.2915981113910675 0.11715634167194366 1.227000117301941 113 97 92
0.2931056022644043 0.11696536839008331 1.225000023841858 219 203 198
0.29460668563842773 0.11677441000938416 1.2230000495910645 205 201 194
0.2965863049030304 0.11677441000938416 1.2230000495910645 205 201 194
0.29856589436531067 0.11677441000938416 1.2230000495910645 205 199 192
0.30054551362991333 0.11677441000938416 1.2230000495910645 211 205 198
0.30128830671310425 0.11629699915647507 1.218000054359436 214 208 201
0.30201491713523865 0.11581958830356598 1.2130000591278076 210 204 197
0.3039783239364624 0.11581958830356598 1.2130000591278076 197 189 182
0.3046806752681732 0.11534217745065689 1.2080000638961792 167 159 152
0.3066359758377075 0.11534217745065689 1.2080000638961792 132 119 113
0.30731400847435 0.1148647740483284 1.2030000686645508 104 91 85
0.3074617385864258 0.11419639736413956 1.196000099182129 87 70 67
0.3093976378440857 0.11419639736413956 1.196000099182129 66 49 46
0.30951136350631714 0.11352802067995071 1.1890000104904175 63 45 40
0.3109120726585388 0.11333705484867096 1.187000036239624 68 50 45
0.31283336877822876 0.11333705484867096 1.187000036239624 65 52 46
0.31422439217567444 0.1131460964679718 1.1850000619888306 62 49 43
0.3161424994468689 0.1131460964679718 1.1850000619888306 58 50 43
0.3175238072872162 0.11295513063669205 1.183000087738037 57 49 42
0.31862857937812805 0.11266868561506271 1.1800000667572021 54 47 42
0.32053855061531067 0.11266868561506271 1.1800000667572021 53 46 41
0.32244858145713806 0.11266868561506271 1.1800000667572021 51 46 41
0.32435858249664307 0.11266868561506271 1.1800000667572021 51 46 41
0.32626858353614807 0.11266868561506271 1.1800000667572021 54 48 46
0.3290129601955414 0.11295513063669205 1.183000087738037 58 52 50
0.3309277892112732 0.11295513063669205 1.183000087738037 64 56 49
0.3328426778316498 0.11295513063669205 1.183000087738037 74 66 59
0.3353234827518463 0.1131460964679718 1.1850000619888306 82 70 61
0.3383799195289612 0.11352802067995071 1.1890000104904175 124 112 103
0.34030449390411377 0.11352802067995071 1.1890000104904175 212 205 200
0.34366822242736816 0.1140054240822792 1.194000005722046 208 201 196
0.3470481038093567 0.1144828349351883 1.1990000009536743 208 203 198
0.3489888608455658 0.1144828349351883 1.1990000009536743 210 205 200
0.3515150249004364 0.11467380821704865 1.2010000944137573 213 205 198
0.35345903038978577 0.11467380821704865 1.2010000944137573 213 205 198
0.35688266158103943 0.11515121906995773 1.2060000896453857 215 205 196
0.3594297766685486 0.11534217745065689 1.2080000638961792 215 205 196
0.36138513684272766 0.11534217745065689 1.2080000638961792 215 205 196
0.36334046721458435 0.11534217745065689 1.2080000638961792 216 206 197
0.3668077886104584 0.11581958830356598 1.2130000591278076 216 206 197
0.3678591549396515 0.11553314328193665 1.2100000381469727 216 206 197
0.36981767416000366 0.11553314328193665 1.2100000381469727 216 206 197
0.3717762529850006 0.11553314328193665 1.2100000381469727 218 208 199
0.3731170892715454 0.11534217745065689 1.2080000638961792 218 208 199
0.3750724196434021 0.11534217745065689 1.2080000638961792 218 208 199
0.3764035403728485 0.11515121906995773 1.2060000896453857 216 206 197
0.376787006855011 0.11467380821704865 1.2010000944137573 218 208 199
0.37873098254203796 0.11467380821704865 1.2010000944137573 218 208 199
0.37909016013145447 0.11419639736413956 1.196000099182129 216 206 197
0.3810260593891144 0.11419639736413956 1.196000099182129 220 208 199
0.3816811442375183 0.11381446570158005 1.1920000314712524 218 206 197
-0.06754004955291748 0.13885317742824554 1.4300000667572021 136 125 112
-0.06508854031562805 0.13856187462806702 1.4270000457763672 103 92 79
-0.06277873367071152 0.13856187462806702 1.4270000457763672 76 65 54
-0.06017230078577995 0.13788217306137085 1.4200000762939453 67 56 45
-0.057629283517599106 0.1372995674610138 1.4140000343322754 70 54 44
-0.055340513586997986 0.1372995674610138 1.4140000343322754 70 54 44
-0.052901674062013626 0.13691116869449615 1.4100000858306885 98 82 77
-0.050619374960660934 0.13691116869449615 1.4100000858306885 222 206 201
-0.048131395131349564 0.1363285630941391 1.4040000438690186 199 195 188
-0.04576082155108452 0.13603726029396057 1.4010000228881836 201 197 190
-0.04349309578537941 0.13603726029396057 1.4010000228881836 202 199 189
-0.04113709554076195 0.13574597239494324 1.3980001211166382 202 199 189
-0.03887422755360603 0.13574597239494324 1.3980001211166382 205 200 190
-0.03661135584115982 0.13574597239494324 1.3980001211166382 205 200 190
-0.034250207245349884 0.1353575736284256 1.3940000534057617 205 200 190
-0.0319938100874424 0.1353575736284256 1.3940000534057617 205 200 190
-0.02973741665482521 0.1353575736284256 1.3940000534057617 207 200 190
-0.027481021359562874 0.1353575736284256 1.3940000534057617 207 200 190
-0.025224626064300537 0.1353575736284256 1.3940000534057617 207 200 190
-0.02291879989206791 0.13506627082824707 1.3910000324249268 207 200 190
-0.02066725865006447 0.13506627082824707 1.3910000324249268 207 200 190
-0.018415719270706177 0.13506627082824707 1.3910000324249268 209 202 192
-0.016164181753993034 0.13506627082824707 1.3910000324249268 206 200 188
-0.013912641443312168 0.13506627082824707 1.3910000324249268 207 201 189
-0.01163595262914896 0.13477496802806854 1.3880000114440918 207 201 189
-0.009348682127892971 0.1341923624277115 1.3820000886917114 207 201 189
-0.007111710030585527 0.1341923624277115 1.3820000886917114 206 200 188
-0.00486415671184659 0.13390105962753296 1.3790000677108765 218 212 200
-0.002632040996104479 0.13390105962753296 1.3790000677108765 128 112 102
-0.0003990552213508636 0.13360977172851562 1.3760000467300415 54 38 28
0.0018202327191829681 0.13302716612815857 1.3700001239776611 55 41 31
0.004037780687212944 0.13302716612815857 1.3700001239776611 50 36 26
0.006237064488232136 0.13263876736164093 1.3660000562667847 40 35 25
0.008429584093391895 0.1323474645614624 1.3630000352859497 38 33 23
0.010635800659656525 0.1323474645614624 1.3630000352859497 31 32 24
0.012813752517104149 0.13205616176128387 1.3600000143051147 31 32 24
0.015015113167464733 0.13205616176128387 1.3600000143051147 31 31 25
0.017178498208522797 0.13176487386226654 1.3570001125335693 31 31 25
0.019332170486450195 0.131473571062088 1.3540000915527344 31 31 25
0.021523820236325264 0.131473571062088 1.3540000915527344 31 31 25
0.023715469986200333 0.131473571062088 1.3540000915527344 31 30 27
0.0259071197360754 0.131473571062088 1.3540000915527344 31 30 27
0.028161026537418365 0.13176487386226654 1.3570001125335693 32 31 28
0.03035753220319748 0.13176487386226654 1.3570001125335693 32 31 28
0.03255403786897659 0.13176487386226654 1.3570001125335693 33 32 29
0.03475054353475571 0.13176487386226654 1.3570001125335693 33 32 29
0.03694704920053482 0.13176487386226654 1.3570001125335693 37 34 31
0.039230089634656906 0.13205616176128387 1.3600000143051147 40 37 34
0.041431449353694916 0.13205616176128387 1.3600000143051147 57 41 36
0.04353656619787216 0.13176487386226654 1.3570001125335693 61 45 40
