ply
format ascii 1.0
element vertex 54
property float32 x
property float32 y
property float32 z
end_header
-0.012121929787099361 -0.06950671225786209 1.3880000114440918
0.03448290005326271 -0.05922799929976463 1.3760000467300415
0.08120106160640717 -0.047942858189344406 1.349000096321106
0.12809117138385773 -0.03725970536470413 1.3280000686645508
0.17366823554039001 -0.025800108909606934 1.2920000553131104
0.22115075588226318 -0.01494323555380106 1.2730000019073486
0.2663218379020691 -0.003589870408177376 1.2400000095367432
0.31159865856170654 0.007187828421592712 1.2080000638961792
0.3619840741157532 0.01856573484838009 1.194000005722046
-0.02204965427517891 -0.0170506089925766 1.3980001211166382
0.02448596991598606 -0.006068526767194271 1.3790000677108765
0.0708496943116188 0.0049493638798594475 1.3510000705718994
0.11697395145893097 0.01598687656223774 1.3220000267028809
0.16329339146614075 0.02680319920182228 1.2950000762939453
0.21073178946971893 0.03823615238070488 1.2760000228881836
0.258415549993515 0.04945075139403343 1.255000114440918
0.29906532168388367 0.05945189669728279 1.2030000686645508
0.3509956896305084 0.071449413895607 1.196000099182129
-0.032006584107875824 0.03525130823254585 1.3910000324249268
0.014104681089520454 0.046396054327487946 1.3730000257492065
0.060602638870477676 0.05777721852064133 1.3540000915527344
0.10752569139003754 0.0690513476729393 1.3340001106262207
0.15291771292686462 0.07946188002824783 1.2970000505447388
0.2005704939365387 0.0910937637090683 1.281000018119812
0.248351588845253 0.10277806967496872 1.2600001096725464
0.2933589816093445 0.11328224092721939 1.225000023841858
0.3369080126285553 0.1233522966504097 1.187000036239624
-0.04226303473114967 0.08799543976783752 1.4010000228881836
0.0038444867823272943 0.09912838041782379 1.3790000677108765
0.050413649529218674 0.11060430854558945 1.3570001125335693
0.09715031832456589 0.1218099296092987 1.3340001106262207
0.14161057770252228 0.131082683801651 1.2920000553131104
0.18853993713855743 0.14294511079788208 1.2730000019073486
0.237222358584404 0.155578151345253 1.2600001096725464
0.2833877205848694 0.16636091470718384 1.2300000190734863
0.3320360779762268 0.1786898970603943 1.2100000381469727
-0.05270644277334213 0.1408706158399582 1.4100000858306885
-0.006243720185011625 0.1523391455411911 1.3880000114440918
0.04004044085741043 0.1627853661775589 1.3570001125335693
0.0868770182132721 0.1749141365289688 1.340000033378601
0.13249851763248444 0.18486039340496063 1.3060001134872437
0.1800532042980194 0.1972704827785492 1.2890000343322754
0.22703847289085388 0.20874163508415222 1.2630000114440918
0.2727550268173218 0.21908336877822876 1.2320001125335693
0.31830039620399475 0.22963562607765198 1.2010000944137573
-0.06266134232282639 0.1923716962337494 1.4040000438690186
-0.01682683452963829 0.20517109334468842 1.3910000324249268
0.02982124127447605 0.2168869823217392 1.3700001239776611
0.0769924446940422 0.2291015386581421 1.3510000705718994
0.12226331233978271 0.23793505132198334 1.311000108718872
0.1691453754901886 0.24917565286159515 1.2860000133514404
0.2154390662908554 0.26045045256614685 1.2600001096725464
0.26141881942749023 0.27113211154937744 1.2300000190734863
0.3079359233379364 0.28221458196640015 1.2030000686645508
