ply
format ascii 1.0
element vertex 687
property float32 x
property float32 y
property float32 z
property uchar red
property uchar green
property uchar blue
end_header
0.059705737978219986 0.0810387134552002 0.5460000038146973 192 193 185
0.06059321016073227 0.0810387134552002 0.5460000038146973 201 202 194
0.06148068606853485 0.0810387134552002 0.5460000038146973 62 63 60
0.062368154525756836 0.0810387134552002 0.5460000038146973 59 60 57
0.06325563043355942 0.0810387134552002 0.5460000038146973 56 61 57
0.064143106341362 0.0810387134552002 0.5460000038146973 56 61 57
0.06503058224916458 0.0810387134552002 0.5460000038146973 56 61 57
0.06591805815696716 0.0810387134552002 0.5460000038146973 56 61 57
0.06680552661418915 0.0810387134552002 0.5460000038146973 54 61 57
0.06769300252199173 0.0810387134552002 0.5460000038146973 54 61 57
0.06858047097921371 0.0810387134552002 0.5460000038146973 54 61 57
0.0694679468870163 0.0810387134552002 0.5460000038146973 53 60 56
0.07035541534423828 0.0810387134552002 0.5460000038146973 53 60 56
0.07124289870262146 0.0810387134552002 0.5460000038146973 54 61 57
0.07213036715984344 0.0810387134552002 0.5460000038146973 53 59 58
0.07301783561706543 0.0810387134552002 0.5460000038146973 53 59 58
0.07390531897544861 0.0810387134552002 0.5460000038146973 53 59 58
0.07492977380752563 0.08118714392185211 0.5470000505447388 53 59 58
0.07581888139247894 0.08118714392185211 0.5470000505447388 52 58 57
0.07670797407627106 0.08118714392185211 0.5470000505447388 53 59 58
0.07759707421064377 0.08118714392185211 0.5470000505447388 54 60 59
0.07848617434501648 0.08118714392185211 0.5470000505447388 54 60 59
0.07937527447938919 0.08118714392185211 0.5470000505447388 54 60 59
0.0802643746137619 0.08118714392185211 0.5470000505447388 55 61 60
0.08115347474813461 0.08118714392185211 0.5470000505447388 56 63 59
0.0821925550699234 0.08133556693792343 0.5480000376701355 57 64 60
0.08308327943086624 0.08133556693792343 0.5480000376701355 62 67 63
0.08397400379180908 0.08133556693792343 0.5480000376701355 64 69 65
0.08486473560333252 0.08133556693792343 0.5480000376701355 74 73 70
0.08591194450855255 0.08148398250341415 0.5490000247955322 79 78 75
0.08680428564548492 0.08148398250341415 0.5490000247955322 87 81 79
0.08769664168357849 0.08148398250341415 0.5490000247955322 136 130 128
0.08858899027109146 0.08148398250341415 0.5490000247955322 211 211 200
0.08964433521032333 0.08163240551948547 0.550000011920929 199 199 188
0.09053830057382584 0.08163240551948547 0.550000011920929 200 200 189
0.09143228083848953 0.08163240551948547 0.550000011920929 200 200 189
0.09232625365257263 0.08163240551948547 0.550000011920929 200 199 191
0.09322022646665573 0.08163240551948547 0.550000011920929 200 199 191
0.09411420673131943 0.08163240551948547 0.550000011920929 200 199 191
0.09500817954540253 0.08163240551948547 0.550000011920929 201 200 192
0.09590215981006622 0.08163240551948547 0.550000011920929 201 201 190
0.09679613262414932 0.08163240551948547 0.550000011920929 201 201 190
0.09769010543823242 0.08163240551948547 0.550000011920929 201 201 190
0.09858408570289612 0.08163240551948547 0.550000011920929 203 203 192
0.09947805851697922 0.08163240551948547 0.550000011920929 203 203 192
0.10037203878164291 0.08163240551948547 0.550000011920929 203 203 192
0.10126601159572601 0.08163240551948547 0.550000011920929 203 203 192
0.10215998440980911 0.08163240551948547 0.550000011920929 203 203 192
0.10305396467447281 0.08163240551948547 0.550000011920929 203 203 192
0.10375893861055374 0.08148398250341415 0.5490000247955322 203 203 192
0.10465129464864731 0.08148398250341415 0.5490000247955322 203 203 192
0.1057358905673027 0.08163240551948547 0.550000011920929 203 203 192
0.1066298559308052 0.08163240551948547 0.550000011920929 203 203 192
0.1075238361954689 0.08163240551948547 0.550000011920929 203 203 192
0.108417809009552 0.08163240551948547 0.550000011920929 203 203 192
0.1093117892742157 0.08163240551948547 0.550000011920929 203 203 192
0.1102057620882988 0.08163240551948547 0.550000011920929 203 203 192
0.1110997349023819 0.08163240551948547 0.550000011920929 203 203 192
0.11219733953475952 0.0817808285355568 0.5509999990463257 200 200 189
0.1132981926202774 0.08192925900220871 0.5520000457763672 199 199 188
0.11419542878866196 0.08192925900220871 0.5520000457763672 206 206 200
0.11509265005588531 0.08192925900220871 0.5520000457763672 77 77 71
0.11620000004768372 0.08207767456769943 0.5530000329017639 64 63 67
0.1170988529920578 0.08207767456769943 0.5530000329017639 65 64 68
0.11821107566356659 0.08222609758377075 0.5540000200271606 62 66 66
0.11932656168937683 0.08237452059984207 0.5550000071525574 62 66 66
0.12022865563631058 0.08237452059984207 0.5550000071525574 62 66 65
0.1213490217924118 0.08252295106649399 0.5560000538825989 62 66 65
0.12225275486707687 0.08252295106649399 0.5560000538825989 61 65 64
0.1233779788017273 0.08267136663198471 0.5570000410079956 61 65 64
0.12450646609067917 0.08281978964805603 0.5580000281333923 61 65 64
0.1254134327173233 0.08281978964805603 0.5580000281333923 61 65 64
0.12632042169570923 0.08281978964805603 0.5580000281333923 61 65 64
0.12745539844036102 0.08296821266412735 0.5590000152587891 61 65 64
0.12836399674415588 0.08296821266412735 0.5590000152587891 59 65 64
0.12950386106967926 0.08311662822961807 0.5600000023841858 59 65 64
0.1301812082529068 0.08296821266412735 0.5590000152587891 59 65 64
0.13108980655670166 0.08296821266412735 0.5590000152587891 59 65 64
0.13223455846309662 0.08311662822961807 0.5600000023841858 59 65 64
0.1331447809934616 0.08311662822961807 0.5600000023841858 60 66 65
0.1340550184249878 0.08311662822961807 0.5600000023841858 61 67 66
0.13496524095535278 0.08311662822961807 0.5600000023841858 61 67 66
0.13587546348571777 0.08311662822961807 0.5600000023841858 62 69 65
0.1370299756526947 0.08326505869626999 0.5610000491142273 63 70 66
0.13794182240962982 0.08326505869626999 0.5610000491142273 68 73 69
0.13885368406772614 0.08326505869626999 0.5610000491142273 71 76 72
0.13976553082466125 0.08326505869626999 0.5610000491142273 77 78 75
0.14067739248275757 0.08326505869626999 0.5610000491142273 83 84 81
0.1415892392396927 0.08326505869626999 0.5610000491142273 92 88 88
0.142501100897789 0.08326505869626999 0.5610000491142273 90 86 86
0.14341294765472412 0.08326505869626999 0.5610000491142273 199 198 190
0.14432480931282043 0.08326505869626999 0.5610000491142273 208 207 199
0.14523667097091675 0.08326505869626999 0.5610000491142273 206 205 197
0.1464090198278427 0.08341348171234131 0.562000036239624 206 205 197
0.14732250571250916 0.08341348171234131 0.562000036239624 206 205 197
0.1482359915971756 0.08341348171234131 0.562000036239624 206 205 197
0.14914946258068085 0.08341348171234131 0.562000036239624 207 206 198
0.1500629484653473 0.08341348171234131 0.562000036239624 207 206 198
0.15097643435001373 0.08341348171234131 0.562000036239624 207 206 198
0.15188992023468018 0.08341348171234131 0.562000036239624 207 206 198
0.15280339121818542 0.08341348171234131 0.562000036239624 207 206 198
0.15371687710285187 0.08341348171234131 0.562000036239624 207 206 198
0.1549054980278015 0.08356190472841263 0.5630000233650208 208 207 199
0.1558205932378769 0.08356190472841263 0.5630000233650208 208 207 199
0.15729248523712158 0.08385874330997467 0.5649999976158142 208 207 199
0.1582108438014984 0.08385874330997467 0.5649999976158142 208 207 199
0.15912918746471405 0.08385874330997467 0.5649999976158142 208 207 199
0.16004754602909088 0.08385874330997467 0.5649999976158142 210 209 201
0.1609659045934677 0.08385874330997467 0.5649999976158142 208 207 199
0.16159775853157043 0.08371032029390335 0.5640000104904175 208 207 199
0.16251447796821594 0.08371032029390335 0.5640000104904175 208 207 199
0.16343121230602264 0.08371032029390335 0.5640000104904175 208 207 199
0.16434794664382935 0.08371032029390335 0.5640000104904175 208 207 199
0.16526466608047485 0.08371032029390335 0.5640000104904175 208 207 199
0.1658867597579956 0.08356190472841263 0.5630000233650208 208 206 200
0.16680186986923218 0.08356190472841263 0.5630000233650208 208 206 200
0.16771696507930756 0.08356190472841263 0.5630000233650208 207 205 199
0.16893158853054047 0.08371032029390335 0.5640000104904175 206 204 198
0.16984833776950836 0.08371032029390335 0.5640000104904175 213 214 211
0.17076507210731506 0.08371032029390335 0.5640000104904175 103 104 101
0.17168179154396057 0.08371032029390335 0.5640000104904175 77 74 78
0.17259852588176727 0.08371032029390335 0.5640000104904175 76 73 77
0.17351526021957397 0.08371032029390335 0.5640000104904175 73 72 76
-0.04252844676375389 0.08057558536529541 0.5370000004768372 45 44 48
-0.04165560007095337 0.08057558536529541 0.5370000004768372 45 44 48
-0.040782757103443146 0.08057558536529541 0.5370000004768372 44 44 45
-0.039909910410642624 0.08057558536529541 0.5370000004768372 43 43 44
-0.039109766483306885 0.08072564005851746 0.5380000472068787 41 41 42
-0.038235295563936234 0.08072564005851746 0.5380000472068787 41 41 42
-0.03736082464456558 0.08072564005851746 0.5380000472068787 41 41 42
-0.03648635372519493 0.08072564005851746 0.5380000472068787 41 41 42
-0.03561187908053398 0.08072564005851746 0.5380000472068787 43 43 44
-0.03473741188645363 0.08072564005851746 0.5380000472068787 43 43 44
-0.03386294096708298 0.08072564005851746 0.5380000472068787 40 44 44
-0.032988470047712326 0.08072564005851746 0.5380000472068787 41 45 45
-0.03211400285363197 0.08072564005851746 0.5380000472068787 42 46 46
-0.031239530071616173 0.08072564005851746 0.5380000472068787 42 46 46
-0.03036505915224552 0.08072564005851746 0.5380000472068787 43 47 47
-0.02949059009552002 0.08072564005851746 0.5380000472068787 43 47 47
-0.02861611917614937 0.08072564005851746 0.5380000472068787 43 47 47
-0.027741648256778717 0.08072564005851746 0.5380000472068787 44 48 48
-0.026867177337408066 0.08072564005851746 0.5380000472068787 44 48 48
-0.025992706418037415 0.08072564005851746 0.5380000472068787 44 48 48
-0.02507154643535614 0.08057558536529541 0.5370000004768372 45 49 49
-0.024198701605200768 0.08057558536529541 0.5370000004768372 45 49 49
-0.023325856775045395 0.08057558536529541 0.5370000004768372 47 51 51
-0.022453011944890022 0.08057558536529541 0.5370000004768372 48 52 52
-0.0215801652520895 0.08057558536529541 0.5370000004768372 51 55 55
-0.020668761804699898 0.08042553812265396 0.5360000133514404 55 59 59
-0.019797541201114655 0.08042553812265396 0.5360000133514404 63 67 67
-0.01889101229608059 0.08027549088001251 0.5350000262260437 168 172 172
-0.018021417781710625 0.08027549088001251 0.5350000262260437 193 192 184
-0.01715182326734066 0.08027549088001251 0.5350000262260437 192 191 183
-0.016282228752970695 0.08027549088001251 0.5350000262260437 194 193 185
-0.015412634238600731 0.08027549088001251 0.5350000262260437 194 193 185
-0.014543040655553341 0.08027549088001251 0.5350000262260437 194 193 185
-0.013647888787090778 0.08012545108795166 0.534000039100647 194 193 185
-0.012779920361936092 0.08012545108795166 0.534000039100647 194 193 185
-0.011911950074136257 0.08012545108795166 0.534000039100647 194 193 185
-0.01102330069988966 0.07997540384531021 0.5330000519752502 196 195 187
-0.010156957432627678 0.07997540384531021 0.5330000519752502 196 195 187
-0.009290614165365696 0.07997540384531021 0.5330000519752502 196 196 185
-0.008424270898103714 0.07997540384531021 0.5330000519752502 196 196 185
-0.007557926699519157 0.07997540384531021 0.5330000519752502 196 196 185
-0.006691582966595888 0.07997540384531021 0.5330000519752502 196 196 185
-0.005825239699333906 0.07997540384531021 0.5330000519752502 196 196 185
-0.004958896432071924 0.07997540384531021 0.5330000519752502 196 196 185
-0.004092552699148655 0.07997540384531021 0.5330000519752502 196 196 185
-0.003226209431886673 0.07997540384531021 0.5330000519752502 197 197 186
-0.0023598659317940474 0.07997540384531021 0.5330000519752502 196 196 185
-0.0014935224317014217 0.07997540384531021 0.5330000519752502 197 197 186
-0.0006271789316087961 0.07997540384531021 0.5330000519752502 197 197 186
0.00023961321858223528 0.08012545108795166 0.534000039100647 197 197 186
0.0011096561793237925 0.08027549088001251 0.5350000262260437 197 197 186
0.0019792504608631134 0.08027549088001251 0.5350000262260437 197 197 186
0.0028541695792227983 0.08042553812265396 0.5360000133514404 197 197 186
0.003725389251485467 0.08042553812265396 0.5360000133514404 196 196 185
0.004596608690917492 0.08042553812265396 0.5360000133514404 196 196 185
0.005478029139339924 0.08057558536529541 0.5370000004768372 194 194 183
0.006350874900817871 0.08057558536529541 0.5370000004768372 194 194 183
0.007223719265311956 0.08057558536529541 0.5370000004768372 197 197 186
0.008111642673611641 0.08072564005851746 0.5380000472068787 60 60 54
0.008986112661659718 0.08072564005851746 0.5380000472068787 61 61 55
0.009878912009298801 0.0808756873011589 0.5390000343322754 58 59 56
0.010755008086562157 0.0808756873011589 0.5390000343322754 57 58 55
0.011631103232502937 0.0808756873011589 0.5390000343322754 52 57 53
0.012530403211712837 0.08102573454380035 0.5400000214576721 51 56 52
0.013432953506708145 0.0811757743358612 0.5410000085830688 52 57 53
0.01428584661334753 0.08102573454380035 0.5400000214576721 50 55 51
0.01516356784850359 0.08102573454380035 0.5400000214576721 50 57 53
0.016041288152337074 0.08102573454380035 0.5400000214576721 50 57 53
0.016950340941548347 0.0811757743358612 0.5410000085830688 50 57 53
0.017829688265919685 0.0811757743358612 0.5410000085830688 49 56 52
0.018709033727645874 0.0811757743358612 0.5410000085830688 49 56 52
0.019588381052017212 0.0811757743358612 0.5410000085830688 48 55 51
0.02046772837638855 0.0811757743358612 0.5410000085830688 48 55 51
0.02134707383811474 0.0811757743358612 0.5410000085830688 49 56 52
0.022267507389187813 0.08132582902908325 0.5420000553131104 49 56 52
0.02314847894012928 0.08132582902908325 0.5420000553131104 49 56 52
0.024029452353715897 0.08132582902908325 0.5420000553131104 49 56 52
0.024910423904657364 0.08132582902908325 0.5420000553131104 49 56 52
0.02579139545559883 0.08132582902908325 0.5420000553131104 49 56 52
0.026672368869185448 0.08132582902908325 0.5420000553131104 50 57 53
0.027553338557481766 0.08132582902908325 0.5420000553131104 50 57 53
0.028434311971068382 0.08132582902908325 0.5420000553131104 52 59 55
0.029369371011853218 0.0814758762717247 0.5430000424385071 55 60 56
0.030251968652009964 0.0814758762717247 0.5430000424385071 56 61 57
0.03113456629216671 0.0814758762717247 0.5430000424385071 58 63 59
0.032017163932323456 0.0814758762717247 0.5430000424385071 61 66 62
0.03289975970983505 0.0814758762717247 0.5430000424385071 68 67 64
0.03378235921263695 0.0814758762717247 0.5430000424385071 73 72 69
0.03466495871543884 0.0814758762717247 0.5430000424385071 174 171 161
0.03554755076766014 0.0814758762717247 0.5430000424385071 202 199 189
0.036430150270462036 0.0814758762717247 0.5430000424385071 196 196 185
0.03731274977326393 0.0814758762717247 0.5430000424385071 196 196 185
0.03819534555077553 0.0814758762717247 0.5430000424385071 196 196 185
0.03907794505357742 0.0814758762717247 0.5430000424385071 196 196 185
0.03996054083108902 0.0814758762717247 0.5430000424385071 197 197 186
0.040843136608600616 0.0814758762717247 0.5430000424385071 196 196 185
0.04172573611140251 0.0814758762717247 0.5430000424385071 197 197 186
0.042529866099357605 0.08132582902908325 0.5420000553131104 197 197 186
0.04341084137558937 0.08132582902908325 0.5420000553131104 197 197 186
0.04429180920124054 0.08132582902908325 0.5420000553131104 198 198 187
0.045256126672029495 0.0814758762717247 0.5430000424385071 198 198 187
0.04613872617483139 0.0814758762717247 0.5430000424385071 198 198 187
0.04702132195234299 0.0814758762717247 0.5430000424385071 198 198 187
0.04790392145514488 0.0814758762717247 0.5430000424385071 198 198 187
0.04878651350736618 0.0814758762717247 0.5430000424385071 198 198 187
0.049669113010168076 0.0814758762717247 0.5430000424385071 198 198 187
0.05055171251296997 0.0814758762717247 0.5430000424385071 199 199 188
0.051434312015771866 0.0814758762717247 0.5430000424385071 198 198 187
0.05231690779328346 0.0814758762717247 0.5430000424385071 199 199 188
0.05319950357079506 0.0814758762717247 0.5430000424385071 199 199 188
0.054082103073596954 0.0814758762717247 0.5430000424385071 199 199 188
0.05496469885110855 0.0814758762717247 0.5430000424385071 199 199 188
0.055847298353910446 0.0814758762717247 0.5430000424385071 199 199 188
0.05683436989784241 0.08162592351436615 0.5440000295639038 198 198 187
0.05771858990192413 0.08162592351436615 0.5440000295639038 198 198 187
0.05860281363129616 0.08162592351436615 0.5440000295639038 196 196 185
0.05948703736066818 0.08162592351436615 0.5440000295639038 194 195 187
0.06048223748803139 0.0817759707570076 0.5450000166893005 204 205 197
0.06136808544397354 0.0817759707570076 0.5450000166893005 100 101 98
0.0622539296746254 0.0817759707570076 0.5450000166893005 57 58 55
0.06313978135585785 0.0817759707570076 0.5450000166893005 60 61 58
0.0640256255865097 0.0817759707570076 0.5450000166893005 60 61 58
0.06491147726774216 0.0817759707570076 0.5450000166893005 56 61 57
0.06579732894897461 0.0817759707570076 0.5450000166893005 57 62 58
0.06680552661418915 0.08192601799964905 0.5460000038146973 56 61 57
0.06769300252199173 0.08192601799964905 0.5460000038146973 56 61 57
0.06845486909151077 0.0817759707570076 0.5450000166893005 54 61 57
0.06934072077274323 0.0817759707570076 0.5450000166893005 54 61 57
0.07022656500339508 0.0817759707570076 0.5450000166893005 53 60 56
0.07111241668462753 0.0817759707570076 0.5450000166893005 54 61 57
0.07199826091527939 0.0817759707570076 0.5450000166893005 53 59 58
0.07288410514593124 0.0817759707570076 0.5450000166893005 53 59 58
0.0737699642777443 0.0817759707570076 0.5450000166893005 54 60 59
0.0747927874326706 0.08192601799964905 0.5460000038146973 54 60 59
0.07568026334047318 0.08192601799964905 0.5460000038146973 53 59 58
0.07656773924827576 0.08192601799964905 0.5460000038146973 53 59 58
0.07745520770549774 0.08192601799964905 0.5460000038146973 54 60 59
0.07834268361330032 0.08192601799964905 0.5460000038146973 54 60 59
0.0792301595211029 0.08192601799964905 0.5460000038146973 55 61 60
0.08011763542890549 0.08192601799964905 0.5460000038146973 55 61 60
0.08100510388612747 0.08192601799964905 0.5460000038146973 58 62 61
0.08204256743192673 0.0820760726928711 0.5470000505447388 59 63 62
0.08293167501688004 0.0820760726928711 0.5470000505447388 62 67 63
0.08382076770067215 0.0820760726928711 0.5470000505447388 64 69 65
0.08470987528562546 0.0820760726928711 0.5470000505447388 71 72 69
0.08559896796941757 0.0820760726928711 0.5470000505447388 76 77 74
0.0866461768746376 0.08222611248493195 0.5480000376701355 86 79 80
0.08753690868616104 0.08222611248493195 0.5480000376701355 101 94 95
0.08842762559652328 0.08222611248493195 0.5480000376701355 210 210 199
0.08931835740804672 0.08222611248493195 0.5480000376701355 199 199 188
0.09020908176898956 0.08222611248493195 0.5480000376701355 200 200 189
0.0910998061299324 0.08222611248493195 0.5480000376701355 200 200 189
0.09199053049087524 0.08222611248493195 0.5480000376701355 200 199 191
0.09288124740123749 0.08222611248493195 0.5480000376701355 200 199 191
0.09377197921276093 0.08222611248493195 0.5480000376701355 200 199 191
0.09466270357370377 0.08222611248493195 0.5480000376701355 201 200 192
0.0955534279346466 0.08222611248493195 0.5480000376701355 201 201 190
0.09662014245986938 0.0823761597275734 0.5490000247955322 201 201 190
0.09733487665653229 0.08222611248493195 0.5480000376701355 201 201 190
0.09822560101747513 0.08222611248493195 0.5480000376701355 203 203 192
0.09911632537841797 0.08222611248493195 0.5480000376701355 203 203 192
0.10000704973936081 0.08222611248493195 0.5480000376701355 203 203 192
0.10089777410030365 0.08222611248493195 0.5480000376701355 203 203 192
0.10178849846124649 0.08222611248493195 0.5480000376701355 203 203 192
0.10267922282218933 0.08222611248493195 0.5480000376701355 203 203 192
0.10356994718313217 0.08222611248493195 0.5480000376701355 203 203 192
0.10446067899465561 0.08222611248493195 0.5480000376701355 203 203 192
0.10535139590501785 0.08222611248493195 0.5480000376701355 203 203 192
0.1062421202659607 0.08222611248493195 0.5480000376701355 203 203 192
0.10732834041118622 0.0823761597275734 0.5490000247955322 203 203 192
0.10822068899869919 0.0823761597275734 0.5490000247955322 203 203 192
0.10911304503679276 0.0823761597275734 0.5490000247955322 204 204 193
0.11000539362430573 0.0823761597275734 0.5490000247955322 203 203 192
0.1108977422118187 0.0823761597275734 0.5490000247955322 203 203 192
0.1119937151670456 0.08252620697021484 0.550000011920929 201 201 190
0.11288768798112869 0.08252620697021484 0.550000011920929 200 200 189
0.11378166824579239 0.08252620697021484 0.550000011920929 209 209 203
0.11509265005588531 0.08282630890607834 0.5520000457763672 128 128 122
0.11620000004768372 0.08297635614871979 0.5530000329017639 60 60 61
0.1170988529920578 0.08297635614871979 0.5530000329017639 67 67 68
0.11821107566356659 0.08312639594078064 0.5540000200271606 62 66 66
0.11932656168937683 0.08327644318342209 0.5550000071525574 63 67 67
0.12022865563631058 0.08327644318342209 0.5550000071525574 63 67 66
0.1213490217924118 0.08342649787664413 0.5560000538825989 63 67 66
0.12225275486707687 0.08342649787664413 0.5560000538825989 62 66 65
0.1233779788017273 0.08357654511928558 0.5570000410079956 62 66 65
0.12450646609067917 0.08372659236192703 0.5580000281333923 61 65 64
0.1254134327173233 0.08372659236192703 0.5580000281333923 61 65 64
0.12632042169570923 0.08372659236192703 0.5580000281333923 62 66 65
0.12745539844036102 0.08387663215398788 0.5590000152587891 62 66 65
0.12836399674415588 0.08387663215398788 0.5590000152587891 62 66 65
0.12950386106967926 0.08402667939662933 0.5600000023841858 61 65 64
0.1301812082529068 0.08387663215398788 0.5590000152587891 62 66 65
0.13108980655670166 0.08387663215398788 0.5590000152587891 62 66 65
0.13223455846309662 0.08402667939662933 0.5600000023841858 63 67 66
0.1331447809934616 0.08402667939662933 0.5600000023841858 64 68 67
0.1340550184249878 0.08402667939662933 0.5600000023841858 64 68 67
0.13496524095535278 0.08402667939662933 0.5600000023841858 64 68 67
0.13587546348571777 0.08402667939662933 0.5600000023841858 65 70 66
0.1370299756526947 0.08417673408985138 0.5610000491142273 66 71 67
0.13794182240962982 0.08417673408985138 0.5610000491142273 69 74 70
0.13885368406772614 0.08417673408985138 0.5610000491142273 71 76 72
0.13976553082466125 0.08417673408985138 0.5610000491142273 77 78 75
0.14067739248275757 0.08417673408985138 0.5610000491142273 82 83 80
0.1415892392396927 0.08417673408985138 0.5610000491142273 92 88 88
0.142501100897789 0.08417673408985138 0.5610000491142273 90 86 86
0.14341294765472412 0.08417673408985138 0.5610000491142273 153 148 143
0.14432480931282043 0.08417673408985138 0.5610000491142273 217 212 207
0.14523667097091675 0.08417673408985138 0.5610000491142273 203 204 196
0.1464090198278427 0.08432678133249283 0.562000036239624 204 205 197
0.14732250571250916 0.08432678133249283 0.562000036239624 206 205 197
0.1482359915971756 0.08432678133249283 0.562000036239624 206 205 197
0.14914946258068085 0.08432678133249283 0.562000036239624 207 206 198
0.1500629484653473 0.08432678133249283 0.562000036239624 207 206 198
0.15097643435001373 0.08432678133249283 0.562000036239624 207 206 198
0.15188992023468018 0.08432678133249283 0.562000036239624 207 206 198
0.15280339121818542 0.08432678133249283 0.562000036239624 208 207 199
0.15371687710285187 0.08432678133249283 0.562000036239624 208 207 199
0.1549054980278015 0.08447682857513428 0.5630000233650208 208 207 199
0.1558205932378769 0.08447682857513428 0.5630000233650208 208 207 199
0.15673570334911346 0.08447682857513428 0.5630000233650208 208 207 199
0.15765081346035004 0.08447682857513428 0.5630000233650208 208 207 199
0.15856590867042542 0.08447682857513428 0.5630000233650208 208 207 199
0.159481018781662 0.08447682857513428 0.5630000233650208 210 209 201
0.16039612889289856 0.08447682857513428 0.5630000233650208 208 207 199
0.16131123900413513 0.08447682857513428 0.5630000233650208 208 207 199
0.1622263342142105 0.08447682857513428 0.5630000233650208 208 207 199
0.16314144432544708 0.08447682857513428 0.5630000233650208 208 207 199
0.16405655443668365 0.08447682857513428 0.5630000233650208 208 207 199
0.1646786332130432 0.08432678133249283 0.562000036239624 208 207 199
0.16559211909770966 0.08432678133249283 0.562000036239624 210 208 202
0.1665056049823761 0.08432678133249283 0.562000036239624 208 206 200
0.16741907596588135 0.08432678133249283 0.562000036239624 208 206 200
0.1683325469493866 0.08432678133249283 0.562000036239624 206 204 198
0.16924603283405304 0.08432678133249283 0.562000036239624 211 210 207
0.17015951871871948 0.08432678133249283 0.562000036239624 168 167 164
0.17107298970222473 0.08432678133249283 0.562000036239624 77 71 77
-0.0407068096101284 0.08129658550024033 0.5360000133514404 43 43 44
-0.03983559086918831 0.08129658550024033 0.5360000133514404 43 43 44
-0.0390370674431324 0.0814482569694519 0.5370000004768372 41 41 42
-0.03816422075033188 0.0814482569694519 0.5370000004768372 41 41 42
-0.037291377782821655 0.0814482569694519 0.5370000004768372 41 41 42
-0.03641853109002113 0.0814482569694519 0.5370000004768372 41 41 42
-0.03554568439722061 0.0814482569694519 0.5370000004768372 41 41 42
-0.03467284142971039 0.0814482569694519 0.5370000004768372 43 43 44
-0.033799998462200165 0.0814482569694519 0.5370000004768372 40 44 44
-0.03292715176939964 0.0814482569694519 0.5370000004768372 41 45 45
-0.03205430880188942 0.0814482569694519 0.5370000004768372 42 46 46
-0.031181462109088898 0.0814482569694519 0.5370000004768372 42 46 46
-0.030308615416288376 0.0814482569694519 0.5370000004768372 43 47 47
-0.029435772448778152 0.0814482569694519 0.5370000004768372 43 47 47
-0.02856292575597763 0.0814482569694519 0.5370000004768372 44 48 48
-0.027690082788467407 0.0814482569694519 0.5370000004768372 44 48 48
-0.026817236095666885 0.0814482569694519 0.5370000004768372 44 48 48
-0.025944391265511513 0.0814482569694519 0.5370000004768372 44 48 48
-0.02507154643535614 0.0814482569694519 0.5370000004768372 45 49 49
-0.024198701605200768 0.0814482569694519 0.5370000004768372 45 49 49
-0.023325856775045395 0.0814482569694519 0.5370000004768372 47 51 51
-0.022453011944890022 0.0814482569694519 0.5370000004768372 48 52 52
-0.0215801652520895 0.0814482569694519 0.5370000004768372 51 55 55
-0.020668761804699898 0.08129658550024033 0.5360000133514404 55 59 59
-0.019797541201114655 0.08129658550024033 0.5360000133514404 59 63 63
-0.01889101229608059 0.08114491403102875 0.5350000262260437 154 158 158
-0.018021417781710625 0.08114491403102875 0.5350000262260437 198 199 191
-0.01715182326734066 0.08114491403102875 0.5350000262260437 190 191 183
-0.016282228752970695 0.08114491403102875 0.5350000262260437 194 193 185
-0.015412634238600731 0.08114491403102875 0.5350000262260437 194 193 185
-0.014543040655553341 0.08114491403102875 0.5350000262260437 194 193 185
-0.013647888787090778 0.08099325001239777 0.534000039100647 194 193 185
-0.012779920361936092 0.08099325001239777 0.534000039100647 194 193 185
-0.011911950074136257 0.08099325001239777 0.534000039100647 196 195 187
-0.01102330069988966 0.08084157854318619 0.5330000519752502 196 195 187
-0.010156957432627678 0.08084157854318619 0.5330000519752502 196 195 187
-0.009290614165365696 0.08084157854318619 0.5330000519752502 196 196 185
-0.008424270898103714 0.08084157854318619 0.5330000519752502 196 196 185
-0.007557926699519157 0.08084157854318619 0.5330000519752502 196 196 185
-0.006691582966595888 0.08084157854318619 0.5330000519752502 196 196 185
-0.005825239699333906 0.08084157854318619 0.5330000519752502 196 196 185
-0.004958896432071924 0.08084157854318619 0.5330000519752502 196 196 185
-0.004092552699148655 0.08084157854318619 0.5330000519752502 196 196 185
-0.003226209431886673 0.08084157854318619 0.5330000519752502 197 197 186
-0.0023598659317940474 0.08084157854318619 0.5330000519752502 197 197 186
-0.0014935224317014217 0.08084157854318619 0.5330000519752502 197 197 186
-0.0006271789316087961 0.08084157854318619 0.5330000519752502 197 197 186
0.00023961321858223528 0.08099325001239777 0.534000039100647 197 197 186
0.0011096561793237925 0.08114491403102875 0.5350000262260437 197 197 186
0.0019792504608631134 0.08114491403102875 0.5350000262260437 197 197 186
0.0028541695792227983 0.08129658550024033 0.5360000133514404 197 197 186
0.003725389251485467 0.08129658550024033 0.5360000133514404 196 196 185
0.004596608690917492 0.08129658550024033 0.5360000133514404 196 196 185
0.005478029139339924 0.0814482569694519 0.5370000004768372 196 196 185
0.006350874900817871 0.0814482569694519 0.5370000004768372 193 193 182
0.007223719265311956 0.0814482569694519 0.5370000004768372 203 203 192
0.008111642673611641 0.08159993588924408 0.5380000472068787 77 77 71
0.008986112661659718 0.08159993588924408 0.5380000472068787 61 61 55
0.009878912009298801 0.08175160735845566 0.5390000343322754 59 60 57
0.010755008086562157 0.08175160735845566 0.5390000343322754 57 58 55
0.011631103232502937 0.08175160735845566 0.5390000343322754 55 56 53
0.012530403211712837 0.08190327882766724 0.5400000214576721 54 55 52
0.013408124446868896 0.08190327882766724 0.5400000214576721 52 57 53
0.014259391464293003 0.08175160735845566 0.5390000343322754 51 56 52
0.015135487541556358 0.08175160735845566 0.5390000343322754 50 57 53
0.01601158268749714 0.08175160735845566 0.5390000343322754 50 57 53
0.016919009387493134 0.08190327882766724 0.5400000214576721 49 56 52
0.017796732485294342 0.08190327882766724 0.5400000214576721 49 56 52
0.018674451857805252 0.08190327882766724 0.5400000214576721 49 56 52
0.01955217309296131 0.08190327882766724 0.5400000214576721 49 56 52
0.02042989619076252 0.08190327882766724 0.5400000214576721 49 56 52
0.02130761556327343 0.08190327882766724 0.5400000214576721 49 56 52
0.02218533866107464 0.08190327882766724 0.5400000214576721 49 56 52
0.02306305803358555 0.08190327882766724 0.5400000214576721 49 56 52
0.023985113948583603 0.08205495029687881 0.5410000085830688 50 57 53
0.02486446127295494 0.08205495029687881 0.5410000085830688 49 56 52
0.02574380673468113 0.08205495029687881 0.5410000085830688 49 56 52
0.026623155921697617 0.08205495029687881 0.5410000085830688 49 56 52
0.027502501383423805 0.08205495029687881 0.5410000085830688 52 57 53
0.028434311971068382 0.08220662921667099 0.5420000553131104 54 59 55
0.029315285384655 0.08220662921667099 0.5420000553131104 55 60 56
0.030196256935596466 0.08220662921667099 0.5420000553131104 56 61 57
0.03113456629216671 0.08235830068588257 0.5430000424385071 58 63 59
0.032017163932323456 0.08235830068588257 0.5430000424385071 59 64 60
0.03283917158842087 0.08220662921667099 0.5420000553131104 68 66 66
0.033720146864652634 0.08220662921667099 0.5420000553131104 71 69 69
0.0346011184155941 0.08220662921667099 0.5420000553131104 138 134 127
0.03548208624124527 0.08220662921667099 0.5420000553131104 207 203 196
0.036363061517477036 0.08220662921667099 0.5420000553131104 198 195 185
0.0372440330684185 0.08220662921667099 0.5420000553131104 198 195 185
0.03812500834465027 0.08220662921667099 0.5420000553131104 198 195 185
0.039005979895591736 0.08220662921667099 0.5420000553131104 198 195 185
0.039886947721242905 0.08220662921667099 0.5420000553131104 197 197 186
0.04076792299747467 0.08220662921667099 0.5420000553131104 197 197 186
0.04164889454841614 0.08220662921667099 0.5420000553131104 197 197 186
0.042529866099357605 0.08220662921667099 0.5420000553131104 197 197 186
0.04341084137558937 0.08220662921667099 0.5420000553131104 197 197 186
0.04429180920124054 0.08220662921667099 0.5420000553131104 198 198 187
0.04517278075218201 0.08220662921667099 0.5420000553131104 198 198 187
0.04605375602841377 0.08220662921667099 0.5420000553131104 198 198 187
0.04693472757935524 0.08220662921667099 0.5420000553131104 198 198 187
0.047815702855587006 0.08220662921667099 0.5420000553131104 198 198 187
0.048696670681238174 0.08220662921667099 0.5420000553131104 199 199 188
0.04957764223217964 0.08220662921667099 0.5420000553131104 198 198 187
0.05045861750841141 0.08220662921667099 0.5420000553131104 199 199 188
0.051339589059352875 0.08220662921667099 0.5420000553131104 198 198 187
0.05222056061029434 0.08220662921667099 0.5420000553131104 199 199 188
0.05310153216123581 0.08220662921667099 0.5420000553131104 199 199 188
0.05398250371217728 0.08220662921667099 0.5420000553131104 199 199 188
0.054863475263118744 0.08220662921667099 0.5420000553131104 199 199 188
0.05574445053935051 0.08220662921667099 0.5420000553131104 198 198 187
0.05672989785671234 0.08235830068588257 0.5430000424385071 198 198 187
0.05761248990893364 0.08235830068588257 0.5430000424385071 198 198 187
0.058495089411735535 0.08235830068588257 0.5430000424385071 197 197 186
0.05937768891453743 0.08235830068588257 0.5430000424385071 194 196 185
0.06037126109004021 0.08250997215509415 0.5440000295639038 196 198 187
0.06125548481941223 0.08250997215509415 0.5440000295639038 140 141 138
0.06213970482349396 0.08250997215509415 0.5440000295639038 48 49 46
0.06302392482757568 0.08250997215509415 0.5440000295639038 61 62 59
0.063908152282238 0.08250997215509415 0.5440000295639038 60 61 58
0.06479237228631973 0.08250997215509415 0.5440000295639038 57 62 58
0.06567659974098206 0.08250997215509415 0.5440000295639038 57 62 58
0.06668317317962646 0.08266164362430573 0.5450000166893005 56 61 57
0.06756902486085892 0.08266164362430573 0.5450000166893005 57 62 58
0.06845486909151077 0.08266164362430573 0.5450000166893005 55 62 58
0.06934072077274323 0.08266164362430573 0.5450000166893005 54 61 57
0.07022656500339508 0.08266164362430573 0.5450000166893005 54 61 57
0.07111241668462753 0.08266164362430573 0.5450000166893005 54 61 57
0.07199826091527939 0.08266164362430573 0.5450000166893005 54 61 57
0.07288410514593124 0.08266164362430573 0.5450000166893005 54 61 57
0.0737699642777443 0.08266164362430573 0.5450000166893005 55 62 58
0.0747927874326706 0.0828133150935173 0.5460000038146973 55 62 58
0.07568026334047318 0.0828133150935173 0.5460000038146973 53 60 56
0.07656773924827576 0.0828133150935173 0.5460000038146973 54 61 57
0.07745520770549774 0.0828133150935173 0.5460000038146973 55 62 58
0.07834268361330032 0.0828133150935173 0.5460000038146973 54 61 57
0.0792301595211029 0.0828133150935173 0.5460000038146973 55 62 58
0.08011763542890549 0.0828133150935173 0.5460000038146973 55 62 58
0.08100510388612747 0.0828133150935173 0.5460000038146973 58 63 59
0.08204256743192673 0.08296499401330948 0.5470000505447388 59 64 60
0.08293167501688004 0.08296499401330948 0.5470000505447388 62 67 63
0.08382076770067215 0.08296499401330948 0.5470000505447388 64 69 65
0.08470987528562546 0.08296499401330948 0.5470000505447388 71 72 69
0.08559896796941757 0.08296499401330948 0.5470000505447388 75 76 73
0.0866461768746376 0.08311666548252106 0.5480000376701355 89 83 81
0.08753690868616104 0.08311666548252106 0.5480000376701355 89 83 81
0.08842762559652328 0.08311666548252106 0.5480000376701355 193 190 180
0.08931835740804672 0.08311666548252106 0.5480000376701355 202 199 189
0.09020908176898956 0.08311666548252106 0.5480000376701355 200 200 189
0.0910998061299324 0.08311666548252106 0.5480000376701355 200 200 189
0.09199053049087524 0.08311666548252106 0.5480000376701355 200 199 191
0.09288124740123749 0.08311666548252106 0.5480000376701355 200 199 191
0.09377197921276093 0.08311666548252106 0.5480000376701355 201 200 192
0.09466270357370377 0.08311666548252106 0.5480000376701355 201 200 192
0.0955534279346466 0.08311666548252106 0.5480000376701355 201 200 192
0.09662014245986938 0.08326833695173264 0.5490000247955322 201 200 192
0.09733487665653229 0.08311666548252106 0.5480000376701355 201 200 192
0.09822560101747513 0.08311666548252106 0.5480000376701355 203 202 194
0.09911632537841797 0.08311666548252106 0.5480000376701355 203 202 194
0.10000704973936081 0.08311666548252106 0.5480000376701355 203 202 194
0.10089777410030365 0.08311666548252106 0.5480000376701355 203 203 192
0.10178849846124649 0.08311666548252106 0.5480000376701355 203 203 192
0.10267922282218933 0.08311666548252106 0.5480000376701355 203 203 192
0.10356994718313217 0.08311666548252106 0.5480000376701355 203 203 192
0.10446067899465561 0.08311666548252106 0.5480000376701355 203 203 192
0.10535139590501785 0.08311666548252106 0.5480000376701355 203 203 192
0.1062421202659607 0.08311666548252106 0.5480000376701355 203 203 192
0.10732834041118622 0.08326833695173264 0.5490000247955322 203 203 192
0.10822068899869919 0.08326833695173264 0.5490000247955322 204 204 193
0.10911304503679276 0.08326833695173264 0.5490000247955322 204 204 193
0.11000539362430573 0.08326833695173264 0.5490000247955322 204 204 193
0.1108977422118187 0.08326833695173264 0.5490000247955322 204 204 193
0.1119937151670456 0.08342000842094421 0.550000011920929 201 201 190
0.11288768798112869 0.08342000842094421 0.550000011920929 201 201 190
0.11378166824579239 0.08342000842094421 0.550000011920929 201 201 195
0.11467564105987549 0.08342000842094421 0.550000011920929 178 178 172
0.11577973514795303 0.08357167989015579 0.5509999990463257 59 59 60
0.11667533963918686 0.08357167989015579 0.5509999990463257 68 68 69
0.11778432875871658 0.08372335880994797 0.5520000457763672 65 69 69
0.11889655888080597 0.08387503027915955 0.5530000329017639 65 69 69
0.11979540437459946 0.08387503027915955 0.5530000329017639 65 69 68
0.12091250717639923 0.08402670174837112 0.5540000200271606 64 68 67
0.12181298434734344 0.08402670174837112 0.5540000200271606 63 67 66
0.12293495982885361 0.0841783657670021 0.5550000071525574 63 67 66
0.12406021356582642 0.08433005213737488 0.5560000538825989 63 67 66
0.12496393173933029 0.08433005213737488 0.5560000538825989 64 68 67
0.12586766481399536 0.08433005213737488 0.5560000538825989 63 67 66
0.1269993931055069 0.08448172360658646 0.5570000410079956 64 68 67
0.1279047429561615 0.08448172360658646 0.5570000410079956 63 67 66
0.12904135882854462 0.08463338762521744 0.5580000281333923 63 67 66
0.12994833290576935 0.08463338762521744 0.5580000281333923 64 68 67
0.13085530698299408 0.08463338762521744 0.5580000281333923 64 68 67
0.13199841976165771 0.08478505909442902 0.5590000152587891 65 69 68
0.13290701806545258 0.08478505909442902 0.5590000152587891 65 69 68
0.13381563127040863 0.08478505909442902 0.5590000152587891 66 70 69
0.1347242295742035 0.08478505909442902 0.5590000152587891 65 69 68
0.13563282787799835 0.08478505909442902 0.5590000152587891 66 71 67
0.13678570091724396 0.0849367305636406 0.5600000023841858 66 71 67
0.13745003938674927 0.08478505909442902 0.5590000152587891 69 74 70
0.13835865259170532 0.08478505909442902 0.5590000152587891 72 77 73
0.13926725089550018 0.08478505909442902 0.5590000152587891 77 78 75
0.14017584919929504 0.08478505909442902 0.5590000152587891 82 83 80
0.1410844624042511 0.08478505909442902 0.5590000152587891 91 87 87
0.14199307560920715 0.08478505909442902 0.5590000152587891 95 91 91
0.14290165901184082 0.08478505909442902 0.5590000152587891 108 103 98
0.14406754076480865 0.0849367305636406 0.5600000023841858 217 212 207
0.14497776329517365 0.0849367305636406 0.5600000023841858 203 204 196
0.14588798582553864 0.0849367305636406 0.5600000023841858 204 205 197
0.14679822325706482 0.0849367305636406 0.5600000023841858 204 205 197
0.147708460688591 0.0849367305636406 0.5600000023841858 204 205 197
0.1486186683177948 0.0849367305636406 0.5600000023841858 207 206 198
0.14952890574932098 0.0849367305636406 0.5600000023841858 207 206 198
0.15043914318084717 0.0849367305636406 0.5600000023841858 207 206 198
0.15134938061237335 0.0849367305636406 0.5600000023841858 207 206 198
0.15225958824157715 0.0849367305636406 0.5600000023841858 208 207 199
0.1534433513879776 0.08508840948343277 0.5610000491142273 208 207 199
0.1543552130460739 0.08508840948343277 0.5610000491142273 208 207 199
0.15526705980300903 0.08508840948343277 0.5610000491142273 208 207 199
0.15617892146110535 0.08508840948343277 0.5610000491142273 208 207 199
0.15709078311920166 0.08508840948343277 0.5610000491142273 210 209 201
0.15800262987613678 0.08508840948343277 0.5610000491142273 210 209 201
0.1589144915342331 0.08508840948343277 0.5610000491142273 208 207 199
0.1598263382911682 0.08508840948343277 0.5610000491142273 208 207 199
0.16073819994926453 0.08508840948343277 0.5610000491142273 208 207 199
0.16165004670619965 0.08508840948343277 0.5610000491142273 208 207 199
0.16256190836429596 0.08508840948343277 0.5610000491142273 210 209 201
0.16347377002239227 0.08508840948343277 0.5610000491142273 208 206 200
0.1643856167793274 0.08508840948343277 0.5610000491142273 210 208 202
0.1652974635362625 0.08508840948343277 0.5610000491142273 208 206 200
0.16620932519435883 0.08508840948343277 0.5610000491142273 208 206 200
0.16712117195129395 0.08508840948343277 0.5610000491142273 206 206 200
0.16803303360939026 0.08508840948343277 0.5610000491142273 205 205 199
0.16894489526748657 0.08508840948343277 0.5610000491142273 204 203 200
0.16985675692558289 0.08508840948343277 0.5610000491142273 211 210 207
-0.0390370674431324 0.08232094347476959 0.5370000004768372 40 40 41
-0.03816422075033188 0.08232094347476959 0.5370000004768372 41 41 42
-0.037291377782821655 0.08232094347476959 0.5370000004768372 40 40 41
-0.03641853109002113 0.08232094347476959 0.5370000004768372 41 41 42
-0.03554568439722061 0.08232094347476959 0.5370000004768372 41 41 42
-0.03467284142971039 0.08232094347476959 0.5370000004768372 43 43 44
-0.033799998462200165 0.08232094347476959 0.5370000004768372 40 44 44
-0.03292715176939964 0.08232094347476959 0.5370000004768372 41 45 45
-0.03205430880188942 0.08232094347476959 0.5370000004768372 41 45 45
-0.031181462109088898 0.08232094347476959 0.5370000004768372 42 46 46
-0.030308615416288376 0.08232094347476959 0.5370000004768372 43 47 47
-0.029435772448778152 0.08232094347476959 0.5370000004768372 43 47 47
-0.02856292575597763 0.08232094347476959 0.5370000004768372 44 48 48
-0.027690082788467407 0.08232094347476959 0.5370000004768372 44 48 48
-0.026817236095666885 0.08232094347476959 0.5370000004768372 45 49 49
-0.025944391265511513 0.08232094347476959 0.5370000004768372 44 48 48
-0.02507154643535614 0.08232094347476959 0.5370000004768372 45 49 49
-0.024198701605200768 0.08232094347476959 0.5370000004768372 45 49 49
-0.02328241989016533 0.08216764777898788 0.5360000133514404 48 52 52
-0.022411199286580086 0.08216764777898788 0.5360000133514404 48 52 52
-0.021499793976545334 0.08201435208320618 0.5350000262260437 51 55 55
-0.02063020132482052 0.08201435208320618 0.5350000262260437 54 58 58
-0.019760604947805405 0.08201435208320618 0.5350000262260437 54 57 60
-0.018855702131986618 0.08186105638742447 0.534000039100647 132 135 138
-0.01795404776930809 0.08170776069164276 0.5330000519752502 200 198 192
-0.017087703570723534 0.08170776069164276 0.5330000519752502 192 190 184
-0.016221361234784126 0.08170776069164276 0.5330000519752502 193 192 184
-0.015355017967522144 0.08170776069164276 0.5330000519752502 194 193 185
-0.014488674700260162 0.08170776069164276 0.5330000519752502 194 193 185
-0.01362233143299818 0.08170776069164276 0.5330000519752502 194 193 185
-0.012755988165736198 0.08170776069164276 0.5330000519752502 196 195 187
-0.011867335997521877 0.08155445009469986 0.5320000052452087 196 195 187
-0.0110026178881526 0.08155445009469986 0.5320000052452087 196 195 187
-0.010137899778783321 0.08155445009469986 0.5320000052452087 196 195 187
-0.009273182600736618 0.08155445009469986 0.5320000052452087 196 195 187
-0.00840846449136734 0.08155445009469986 0.5320000052452087 196 195 187
-0.007543746381998062 0.08155445009469986 0.5320000052452087 196 195 187
-0.006679027806967497 0.08155445009469986 0.5320000052452087 196 195 187
-0.005814310163259506 0.08155445009469986 0.5320000052452087 196 196 185
-0.004949592519551516 0.08155445009469986 0.5320000052452087 197 197 186
-0.00408487394452095 0.08155445009469986 0.5320000052452087 197 197 186
-0.0032201563008129597 0.08155445009469986 0.5320000052452087 197 197 186
-0.0023554381914436817 0.08155445009469986 0.5320000052452087 197 197 186
-0.0014907201984897256 0.08155445009469986 0.5320000052452087 197 197 186
-0.0006260021473281085 0.08155445009469986 0.5320000052452087 197 197 186
0.00023916451027616858 0.08170776069164276 0.5330000519752502 197 197 186
0.0011075821239501238 0.08186105638742447 0.534000039100647 197 197 186
0.001975551014766097 0.08186105638742447 0.534000039100647 197 197 186
0.0028435196727514267 0.08186105638742447 0.534000039100647 196 196 185
0.0037184390239417553 0.08201435208320618 0.5350000262260437 196 196 185
0.004588033072650433 0.08201435208320618 0.5350000262260437 196 196 185
0.00545762712135911 0.08201435208320618 0.5350000262260437 196 196 185
0.0063272216357290745 0.08201435208320618 0.5350000262260437 193 193 182
0.007210267707705498 0.08216764777898788 0.5360000133514404 204 204 193
0.008096564561128616 0.08232094347476959 0.5370000004768372 109 108 100
0.008969409391283989 0.08232094347476959 0.5370000004768372 62 61 53
0.009842255152761936 0.08232094347476959 0.5370000004768372 59 60 57
0.01073505450040102 0.0824742466211319 0.5380000472068787 57 58 55
0.011609524488449097 0.0824742466211319 0.5380000472068787 55 56 53
0.012483995407819748 0.0824742466211319 0.5380000472068787 54 55 52
0.013358465395867825 0.0824742466211319 0.5380000472068787 52 57 53
0.014232936315238476 0.0824742466211319 0.5380000472068787 52 57 53
0.015107407234609127 0.0824742466211319 0.5380000472068787 52 57 53
0.015981877222657204 0.0824742466211319 0.5380000472068787 52 57 53
0.01688767783343792 0.0826275423169136 0.5390000343322754 49 56 52
0.01776377484202385 0.0826275423169136 0.5390000343322754 49 56 52
0.01863986998796463 0.0826275423169136 0.5390000343322754 49 56 52
0.01951596699655056 0.0826275423169136 0.5390000343322754 49 56 52
0.02039206400513649 0.0826275423169136 0.5390000343322754 49 56 52
0.02130761556327343 0.08278083801269531 0.5400000214576721 49 56 52
0.02218533866107464 0.08278083801269531 0.5400000214576721 49 56 52
0.02306305803358555 0.08278083801269531 0.5400000214576721 49 56 52
0.023940781131386757 0.08278083801269531 0.5400000214576721 50 57 53
0.024818502366542816 0.08278083801269531 0.5400000214576721 49 56 52
0.025696221739053726 0.08278083801269531 0.5400000214576721 49 56 52
0.026623155921697617 0.08293413370847702 0.5410000085830688 50 57 53
0.027502501383423805 0.08293413370847702 0.5410000085830688 52 57 53
0.028381848707795143 0.08293413370847702 0.5410000085830688 54 59 55
0.02926119603216648 0.08293413370847702 0.5410000085830688 55 60 56
0.03014054149389267 0.08293413370847702 0.5410000085830688 56 61 57
0.031077228486537933 0.08308743685483932 0.5420000553131104 57 62 58
0.0319582000374794 0.08308743685483932 0.5420000553131104 59 64 60
0.03283917158842087 0.08308743685483932 0.5420000553131104 69 67 67
0.033720146864652634 0.08308743685483932 0.5420000553131104 73 71 71
0.0346011184155941 0.08308743685483932 0.5420000553131104 111 109 103
0.03548208624124527 0.08308743685483932 0.5420000553131104 205 203 197
0.036363061517477036 0.08308743685483932 0.5420000553131104 196 193 183
0.0372440330684185 0.08308743685483932 0.5420000553131104 198 195 185
0.03812500834465027 0.08308743685483932 0.5420000553131104 198 195 185
0.039005979895591736 0.08308743685483932 0.5420000553131104 198 195 185
0.039886947721242905 0.08308743685483932 0.5420000553131104 196 196 185
0.04076792299747467 0.08308743685483932 0.5420000553131104 197 197 186
0.04164889454841614 0.08308743685483932 0.5420000553131104 197 197 186
