ply
format ascii 1.0
element vertex 54
property float32 x
property float32 y
property float32 z
end_header
-0.17070652544498444 0.10833991318941116 1.2890000343322754
-0.11649859696626663 0.10633955150842667 1.3000000715255737
-0.06311765313148499 0.10582359880208969 1.3280000686645508
-0.008519819006323814 0.10225667804479599 1.3140000104904175
0.04474020376801491 0.10061020404100418 1.3250000476837158
0.09699205309152603 0.09860429167747498 1.3310000896453857
0.15175314247608185 0.09850428253412247 1.3630000352859497
0.2051466405391693 0.09698621928691864 1.3790000677108765
0.2548811137676239 0.09428440779447556 1.3760000467300415
-0.16736742854118347 0.16350139677524567 1.2780001163482666
-0.11415202915668488 0.16229426860809326 1.2970000505447388
-0.059857968240976334 0.16025088727474213 1.3060001134872437
-0.006139360833913088 0.16023270785808563 1.3340001106262207
0.04742388054728508 0.1571028232574463 1.3340001106262207
0.10046058893203735 0.1545013040304184 1.340000033378601
0.15489648282527924 0.15447981655597687 1.3660000562667847
0.20614716410636902 0.15123941004276276 1.3660000562667847
0.25961777567863464 0.15017186105251312 1.3820000886917114
-0.1652941256761551 0.2193019688129425 1.2730000019073486
-0.11099159717559814 0.21706128120422363 1.284000039100647
-0.057774659246206284 0.21736960113048553 1.311000108718872
-0.0032702344469726086 0.21484725177288055 1.3200000524520874
0.050582073628902435 0.21478725969791412 1.343000054359436
0.1052452027797699 0.2135668694972992 1.3600000143051147
0.15924036502838135 0.21224887669086456 1.3760000467300415
0.21088078618049622 0.2081894874572754 1.3730000257492065
0.2635381519794464 0.20654067397117615 1.3850001096725464
-0.1628895401954651 0.27556154131889343 1.2680000066757202
-0.10879821330308914 0.2739484906196594 1.284000039100647
-0.05516355112195015 0.2731229364871979 1.3030000925064087
-0.0007373133557848632 0.27008527517318726 1.311000108718872
0.05235039442777634 0.2648525536060333 1.308000087738037
0.1058855801820755 0.2657639980316162 1.3340001106262207
0.16039229929447174 0.26593297719955444 1.3570001125335693
0.21311768889427185 0.2635360658168793 1.3660000562667847
0.2669169306755066 0.26247674226760864 1.3820000886917114
-0.16003012657165527 0.3312819302082062 1.2600001096725464
-0.1072334423661232 0.33286386728286743 1.2890000343322754
-0.05243723466992378 0.3300616443157196 1.3000000715255737
0.0016757227713242173 0.3261069655418396 1.3060001134872437
0.05512299761176109 0.3227770924568176 1.3140000104904175
0.10883383452892303 0.32111889123916626 1.3280000686645508
0.16347168385982513 0.3225061297416687 1.3540000915527344
0.21735262870788574 0.3211534023284912 1.3690000772476196
0.2709325850009918 0.31943193078041077 1.3820000886917114
-0.1575935035943985 0.3877229690551758 1.255000114440918
-0.10273407399654388 0.38269251585006714 1.2600001096725464
-0.049634482711553574 0.3868820369243622 1.2950000762939453
0.004283865448087454 0.3812928795814514 1.2970000505447388
0.05853044241666794 0.3824487328529358 1.3220000267028809
0.1125849187374115 0.38124191761016846 1.3370000123977661
0.16619206964969635 0.3785664737224579 1.3480000495910645
0.22006918489933014 0.37727048993110657 1.3630000352859497
0.2737824320793152 0.3754412531852722 1.3760000467300415
