ply
format ascii 1.0
element vertex 673
property float32 x
property float32 y
property float32 z
property uchar red
property uchar green
property uchar blue
end_header
-0.19160449504852295 0.021007342264056206 0.7210000157356262 94 91 74
-0.19096574187278748 0.021065616980195045 0.7230000495910645 60 54 40
-0.18979544937610626 0.021065616980195045 0.7230000495910645 58 52 38
-0.18888606131076813 0.021094752475619316 0.7240000367164612 45 47 36
-0.18771415948867798 0.021094752475619316 0.7240000367164612 42 44 33
-0.18679989874362946 0.021123887971043587 0.7250000238418579 38 41 33
-0.18588243424892426 0.021153025329113007 0.7260000109672546 37 40 32
-0.18470728397369385 0.021153025329113007 0.7260000109672546 37 40 32
-0.18378496170043945 0.021182162687182426 0.7270000576972961 37 40 32
-0.18260818719863892 0.021182162687182426 0.7270000576972961 36 38 32
-0.18143144249916077 0.021182162687182426 0.7270000576972961 36 38 32
-0.18050262331962585 0.021211298182606697 0.7280000448226929 36 38 32
-0.17932423949241638 0.021211298182606697 0.7280000448226929 34 36 30
-0.17839057743549347 0.021240433678030968 0.7290000319480896 34 36 30
-0.1774536669254303 0.021269571036100388 0.7300000190734863 34 36 30
-0.17627204954624176 0.021269571036100388 0.7300000190734863 34 36 30
-0.17557014524936676 0.021327843889594078 0.7320000529289246 34 36 30
-0.17438529431819916 0.021327843889594078 0.7320000529289246 32 34 28
-0.17320044338703156 0.021327843889594078 0.7320000529289246 33 35 29
-0.1724855750799179 0.02138611674308777 0.734000027179718 34 37 29
-0.17129749059677124 0.02138611674308777 0.734000027179718 36 39 31
-0.17010940611362457 0.02138611674308777 0.734000027179718 42 40 34
-0.1691514402627945 0.02141525223851204 0.7350000143051147 40 38 32
-0.1679617464542389 0.02141525223851204 0.7350000143051147 67 63 56
-0.166998952627182 0.02144438959658146 0.7360000610351562 168 164 157
-0.16603289544582367 0.02147352509200573 0.737000048160553 157 157 138
-0.164839968085289 0.02147352509200573 0.737000048160553 158 158 139
-0.16364701092243195 0.02147352509200573 0.737000048160553 163 159 140
-0.16267448663711548 0.02150266245007515 0.7380000352859497 164 160 141
-0.16147993505001068 0.02150266245007515 0.7380000352859497 167 160 142
-0.1602853685617447 0.02150266245007515 0.7380000352859497 169 162 144
-0.1588752418756485 0.02147352509200573 0.737000048160553 167 163 144
-0.15768229961395264 0.02147352509200573 0.737000048160553 167 163 144
-0.15648934245109558 0.02147352509200573 0.737000048160553 167 164 142
-0.1552964150905609 0.02147352509200573 0.737000048160553 168 165 143
-0.15431255102157593 0.02150266245007515 0.7380000352859497 168 165 143
-0.15311798453330994 0.02150266245007515 0.7380000352859497 168 165 143
-0.15192343294620514 0.02150266245007515 0.7380000352859497 167 165 141
-0.15072886645793915 0.02150266245007515 0.7380000352859497 167 165 141
-0.1497369259595871 0.02153179794549942 0.7390000224113464 169 164 141
-0.14854075014591217 0.02153179794549942 0.7390000224113464 169 164 141
-0.14734455943107605 0.02153179794549942 0.7390000224113464 169 164 141
-0.14614838361740112 0.02153179794549942 0.7390000224113464 167 162 139
-0.14534451067447662 0.02159007266163826 0.7410000562667847 165 163 139
-0.14433960616588593 0.02161920815706253 0.7420000433921814 164 162 138
-0.1431385725736618 0.02161920815706253 0.7420000433921814 174 171 149
-0.14232011139392853 0.021677479147911072 0.7440000176429749 83 80 58
-0.14130552113056183 0.02170661836862564 0.7450000643730164 56 53 36
-0.1400996297597885 0.02170661836862564 0.7450000643730164 54 51 34
-0.13926659524440765 0.021764889359474182 0.7470000386238098 45 46 33
-0.13805747032165527 0.021764889359474182 0.7470000386238098 44 45 32
-0.13703154027462006 0.021794024854898453 0.7480000257492065 44 43 35
-0.13600236177444458 0.021823162212967873 0.7490000128746033 43 42 34
-0.13478998839855194 0.021823162212967873 0.7490000128746033 42 41 33
-0.13393431901931763 0.021881435066461563 0.7510000467300415 42 41 33
-0.13271871209144592 0.021881435066461563 0.7510000467300415 43 42 34
-0.13150310516357422 0.021881435066461563 0.7510000467300415 42 41 33
-0.1304609775543213 0.021910570561885834 0.7520000338554382 44 43 35
-0.12958748638629913 0.021968843415379524 0.7540000081062317 42 41 33
-0.12836702167987823 0.021968843415379524 0.7540000081062317 42 36 29
-0.1273152083158493 0.021997980773448944 0.7550000548362732 47 41 34
-0.12609313428401947 0.021997980773448944 0.7550000548362732 46 41 31
-0.12503643333911896 0.022027118131518364 0.7560000419616699 44 39 29
-0.12397651374340057 0.022056253626942635 0.7570000290870667 46 42 30
-0.12275119125843048 0.022056253626942635 0.7570000290870667 56 52 40
-0.1216864064335823 0.022085389122366905 0.7580000162124634 68 64 52
-0.12061840295791626 0.022114526480436325 0.7590000629425049 82 78 66
-0.1193898469209671 0.022114526480436325 0.7590000629425049 102 98 84
-0.11831696331501007 0.022143663838505745 0.7600000500679016 126 122 108
-0.11708679795265198 0.022143663838505745 0.7600000500679016 109 102 84
-0.11600906401872635 0.022172799333930016 0.7610000371932983 94 87 69
-0.11492810398340225 0.022201934829354286 0.7620000243186951 81 67 55
-0.1136946901679039 0.022201934829354286 0.7620000243186951 69 55 43
-0.11246127635240555 0.022201934829354286 0.7620000243186951 58 48 39
-0.11137384176254272 0.022231070324778557 0.7630000114440918 57 47 38
-0.11013880372047424 0.022231070324778557 0.7630000114440918 56 46 37
-0.10890377312898636 0.022231070324778557 0.7630000114440918 58 48 39
-0.1078098714351654 0.022260209545493126 0.7640000581741333 57 43 33
-0.10657322406768799 0.022260209545493126 0.7640000581741333 60 46 36
-0.10533658415079117 0.022260209545493126 0.7640000581741333 58 52 40
-0.10409992933273315 0.022260209545493126 0.7640000581741333 57 51 39
-0.10313255339860916 0.022318480536341667 0.7660000324249268 54 50 43
-0.10215871036052704 0.022376753389835358 0.7680000066757202 52 48 41
-0.1009155809879303 0.022376753389835358 0.7680000066757202 50 46 39
-0.09980224072933197 0.022405890747904778 0.7690000534057617 50 46 39
-0.09881383180618286 0.022464163601398468 0.7710000276565552 51 47 40
-0.09756585210561752 0.022464163601398468 0.7710000276565552 51 47 40
-0.0964427962899208 0.02249329909682274 0.7720000147819519 57 49 42
-0.09519320726394653 0.02249329909682274 0.7720000147819519 69 61 54
-0.09406530112028122 0.02252243645489216 0.7730000615119934 164 165 152
-0.09305422008037567 0.02258070930838585 0.7750000357627869 151 152 139
-0.0917997732758522 0.02258070930838585 0.7750000357627869 153 153 134
-0.0906621515750885 0.02260984480381012 0.7760000228881836 153 153 134
-0.08963651210069656 0.02266811765730381 0.7780000567436218 157 155 136
-0.0883772000670433 0.02266811765730381 0.7780000567436218 155 153 134
-0.08722987025976181 0.02269725501537323 0.7790000438690186 155 153 134
-0.08596894145011902 0.02269725501537323 0.7790000438690186 157 155 136
-0.08470802009105682 0.02269725501537323 0.7790000438690186 157 155 136
-0.083554208278656 0.0227263905107975 0.7800000309944153 157 155 136
-0.08229166269302368 0.0227263905107975 0.7800000309944153 157 155 136
-0.08113300055265427 0.02275552600622177 0.781000018119812 155 153 134
-0.07997110486030579 0.02278466522693634 0.7820000648498535 157 155 136
-0.0787053182721138 0.02278466522693634 0.7820000648498535 157 155 136
-0.07753856480121613 0.02281380072236061 0.7830000519752502 157 155 136
-0.07636857777833939 0.02284293621778488 0.784000039100647 157 155 136
-0.07509955018758774 0.02284293621778488 0.784000039100647 155 155 136
-0.07392469793558121 0.022872071713209152 0.7850000262260437 153 153 134
-0.07265406101942062 0.022872071713209152 0.7850000262260437 151 150 133
-0.07138342410326004 0.022872071713209152 0.7850000262260437 159 158 141
-0.07020209729671478 0.022901209071278572 0.7860000133514404 60 54 40
-0.06892984360456467 0.022901209071278572 0.7860000133514404 55 49 35
-0.06765758991241455 0.022901209071278572 0.7860000133514404 47 44 34
-0.06646979600191116 0.022930346429347992 0.7870000600814819 45 42 32
-0.06519591063261032 0.022930346429347992 0.7870000600814819 38 37 29
-0.06392204016447067 0.022930346429347992 0.7870000600814819 40 39 31
-0.06272776424884796 0.022959481924772263 0.7880000472068787 40 39 31
-0.06145227327942848 0.022959481924772263 0.7880000472068787 38 37 29
-0.060176774859428406 0.022959481924772263 0.7880000472068787 36 36 30
-0.058901283890008926 0.022959481924772263 0.7880000472068787 36 36 30
-0.05762578919529915 0.022959481924772263 0.7880000472068787 33 35 29
-0.056421805173158646 0.022988617420196533 0.7890000343322754 33 35 29
-0.05514468625187874 0.022988617420196533 0.7890000343322754 33 35 29
-0.05400412157177925 0.023046890273690224 0.7910000085830688 33 35 29
-0.052790429443120956 0.023076027631759644 0.7920000553131104 33 35 29
-0.05150846019387245 0.023076027631759644 0.7920000553131104 36 38 32
-0.050289902836084366 0.023105163127183914 0.7930000424385071 36 39 31
-0.04900631681084633 0.023105163127183914 0.7930000424385071 38 41 33
-0.047782909125089645 0.023134300485253334 0.7940000295639038 44 36 29
-0.0465562641620636 0.023163435980677605 0.7950000166893005 83 75 68
-0.0452694408595562 0.023163435980677605 0.7950000166893005 166 169 154
-0.044093262404203415 0.023221710696816444 0.7970000505447388 153 156 141
-0.04285690560936928 0.023250846192240715 0.7980000376701355 156 158 140
-0.04156522452831268 0.023250846192240715 0.7980000376701355 158 160 142
-0.04032401368021965 0.023279981687664986 0.7990000247955322 160 160 141
-0.03907955810427666 0.023309117183089256 0.800000011920929 160 160 141
-0.037784643471241 0.023309117183089256 0.800000011920929 163 162 140
-0.036580950021743774 0.023367391899228096 0.8020000457763672 163 162 140
-0.03528279438614845 0.023367391899228096 0.8020000457763672 165 164 142
-0.03398463875055313 0.023367391899228096 0.8020000457763672 165 164 142
-0.03272723779082298 0.023396527394652367 0.8030000329017639 165 164 142
-0.03142746165394783 0.023396527394652367 0.8030000329017639 166 165 143
-0.030165208503603935 0.023425662890076637 0.8040000200271606 166 165 143
-0.028899716213345528 0.023454802110791206 0.8050000667572021 167 166 144
-0.02759670466184616 0.023454802110791206 0.8050000667572021 167 166 144
-0.02632635459303856 0.023483937606215477 0.8060000538825989 167 166 144
-0.02502172626554966 0.023483937606215477 0.8060000538825989 168 167 145
-0.02371709607541561 0.023483937606215477 0.8060000538825989 168 167 145
-0.022440271452069283 0.023513073101639748 0.8070000410079956 169 168 146
-0.021134022623300552 0.023513073101639748 0.8070000410079956 169 168 146
-0.019827773794531822 0.023513073101639748 0.8070000410079956 169 168 146
-0.018521524965763092 0.023513073101639748 0.8070000410079956 169 168 146
-0.017215276136994362 0.023513073101639748 0.8070000410079956 170 169 147
-0.01590902730822563 0.023513073101639748 0.8070000410079956 170 169 147
-0.014602778479456902 0.023513073101639748 0.8070000410079956 168 168 149
-0.013313005678355694 0.023542210459709167 0.8080000281333923 172 172 153
-0.012005137279629707 0.023542210459709167 0.8080000281333923 93 94 79
-0.22777080535888672 0.021405188366770744 0.6960000395774841 26 27 24
-0.22664424777030945 0.021405188366770744 0.6960000395774841 27 28 25
-0.2258416712284088 0.021435942500829697 0.6970000267028809 27 28 25
-0.22471347451210022 0.021435942500829697 0.6970000267028809 26 31 27
-0.22358527779579163 0.021435942500829697 0.6970000267028809 26 31 27
-0.22277623414993286 0.02146669663488865 0.6980000138282776 26 31 27
-0.22164642810821533 0.02146669663488865 0.6980000138282776 26 31 27
-0.2205166071653366 0.02146669663488865 0.6980000138282776 26 31 27
-0.22001542150974274 0.021528206765651703 0.7000000476837158 27 32 28
-0.21950772404670715 0.021589715033769608 0.7020000219345093 28 33 29
-0.2183714359998703 0.021589715033769608 0.7020000219345093 29 34 30
-0.21723514795303345 0.021589715033769608 0.7020000219345093 35 34 31
-0.2160988748073578 0.021589715033769608 0.7020000219345093 39 38 35
-0.21557500958442688 0.02165122516453266 0.7040000557899475 45 38 33
-0.21504466235637665 0.021712733432650566 0.706000030040741 141 134 129
-0.21390189230442047 0.021712733432650566 0.706000030040741 166 162 148
-0.2127591222524643 0.021712733432650566 0.706000030040741 163 159 145
-0.212215855717659 0.02177424170076847 0.7080000042915344 165 161 147
-0.21106983721256256 0.02177424170076847 0.7080000042915344 167 163 149
-0.21051685512065887 0.021835751831531525 0.7100000381469727 167 163 149
-0.20936760306358337 0.021835751831531525 0.7100000381469727 167 163 149
-0.20821836590766907 0.021835751831531525 0.7100000381469727 166 162 148
-0.20736075937747955 0.021866505965590477 0.7110000252723694 166 162 148
-0.2062099128961563 0.021866505965590477 0.7110000252723694 166 162 148
-0.20505905151367188 0.021866505965590477 0.7110000252723694 167 163 149
-0.20419497787952423 0.02189726009964943 0.7120000123977661 167 164 147
-0.20304250717163086 0.02189726009964943 0.7120000123977661 167 164 147
-0.20217359066009521 0.02192801609635353 0.7130000591278076 168 163 146
-0.2013014405965805 0.021958770230412483 0.7140000462532043 168 163 146
-0.20014572143554688 0.021958770230412483 0.7140000462532043 168 163 146
-0.19926869869232178 0.021989524364471436 0.7150000333786011 168 163 146
-0.19811135530471802 0.021989524364471436 0.7150000333786011 169 164 147
-0.19722947478294373 0.022020278498530388 0.7160000205039978 169 164 147
-0.1966182291507721 0.022081788629293442 0.718000054359436 168 163 146
-0.19545604288578033 0.022081788629293442 0.718000054359436 168 163 146
-0.19456444680690765 0.022112544625997543 0.7190000414848328 167 162 145
-0.1936696171760559 0.022143298760056496 0.7200000286102295 165 160 143
-0.1925041824579239 0.022143298760056496 0.7200000286102295 167 164 147
-0.19160449504852295 0.022174052894115448 0.7210000157356262 138 135 118
-0.19096574187278748 0.022235563024878502 0.7230000495910645 51 47 33
-0.18979544937610626 0.022235563024878502 0.7230000495910645 56 52 38
-0.18914695084095 0.022297071292996407 0.7250000238418579 45 47 36
-0.18797342479228973 0.022297071292996407 0.7250000238418579 42 44 33
-0.18679989874362946 0.022297071292996407 0.7250000238418579 37 40 32
-0.18588243424892426 0.02232782542705536 0.7260000109672546 37 40 32
-0.18470728397369385 0.02232782542705536 0.7260000109672546 37 40 32
-0.18378496170043945 0.02235858142375946 0.7270000576972961 36 39 31
-0.18260818719863892 0.02235858142375946 0.7270000576972961 36 38 32
-0.18143144249916077 0.02235858142375946 0.7270000576972961 36 38 32
-0.18050262331962585 0.022389335557818413 0.7280000448226929 34 36 30
-0.17932423949241638 0.022389335557818413 0.7280000448226929 34 36 30
-0.17839057743549347 0.022420089691877365 0.7290000319480896 34 36 30
-0.1774536669254303 0.022450843825936317 0.7300000190734863 34 36 30
-0.17627204954624176 0.022450843825936317 0.7300000190734863 33 35 29
-0.17557014524936676 0.02251235395669937 0.7320000529289246 33 35 29
-0.17438529431819916 0.02251235395669937 0.7320000529289246 32 34 28
-0.17320044338703156 0.02251235395669937 0.7320000529289246 33 35 29
-0.1724855750799179 0.022573862224817276 0.734000027179718 34 36 30
-0.17129749059677124 0.022573862224817276 0.734000027179718 36 38 32
-0.17010940611362457 0.022573862224817276 0.734000027179718 41 39 33
-0.1691514402627945 0.02260461635887623 0.7350000143051147 44 42 36
-0.1679617464542389 0.02260461635887623 0.7350000143051147 50 45 40
-0.166998952627182 0.02263537235558033 0.7360000610351562 160 155 150
-0.16603289544582367 0.022666126489639282 0.737000048160553 156 158 140
-0.164839968085289 0.022666126489639282 0.737000048160553 156 158 140
-0.16364701092243195 0.022666126489639282 0.737000048160553 163 159 140
-0.16267448663711548 0.022696880623698235 0.7380000352859497 164 160 141
-0.16147993505001068 0.022696880623698235 0.7380000352859497 164 160 141
-0.1602853685617447 0.022696880623698235 0.7380000352859497 167 163 144
-0.1588752418756485 0.022666126489639282 0.737000048160553 169 162 144
-0.15768229961395264 0.022666126489639282 0.737000048160553 169 162 144
-0.15648934245109558 0.022666126489639282 0.737000048160553 167 164 142
-0.1552964150905609 0.022666126489639282 0.737000048160553 167 164 142
-0.15431255102157593 0.022696880623698235 0.7380000352859497 167 164 142
-0.15311798453330994 0.022696880623698235 0.7380000352859497 167 164 142
-0.15192343294620514 0.022696880623698235 0.7380000352859497 167 164 142
-0.15072886645793915 0.022696880623698235 0.7380000352859497 167 164 142
-0.1497369259595871 0.022727634757757187 0.7390000224113464 167 165 141
-0.14854075014591217 0.022727634757757187 0.7390000224113464 167 165 141
-0.14734455943107605 0.022727634757757187 0.7390000224113464 167 162 139
-0.14614838361740112 0.022727634757757187 0.7390000224113464 167 162 139
-0.14534451067447662 0.02278914488852024 0.7410000562667847 165 163 139
-0.14433960616588593 0.022819899022579193 0.7420000433921814 165 163 139
-0.1431385725736618 0.022819899022579193 0.7420000433921814 169 167 143
-0.14232011139392853 0.022881407290697098 0.7440000176429749 120 118 94
-0.14130552113056183 0.0229121632874012 0.7450000643730164 57 49 33
-0.1400996297597885 0.0229121632874012 0.7450000643730164 58 50 34
-0.13926659524440765 0.022973671555519104 0.7470000386238098 49 47 35
-0.13805747032165527 0.022973671555519104 0.7470000386238098 45 43 31
-0.13703154027462006 0.023004425689578056 0.7480000257492065 43 40 30
-0.13600236177444458 0.02303517982363701 0.7490000128746033 44 41 31
-0.13478998839855194 0.02303517982363701 0.7490000128746033 47 40 30
-0.13393431901931763 0.023096689954400063 0.7510000467300415 44 37 27
-0.13271871209144592 0.023096689954400063 0.7510000467300415 49 44 34
-0.13150310516357422 0.023096689954400063 0.7510000467300415 49 44 34
-0.1304609775543213 0.023127444088459015 0.7520000338554382 53 51 39
-0.1294156312942505 0.023158198222517967 0.753000020980835 68 66 54
-0.12819677591323853 0.023158198222517967 0.753000020980835 87 81 67
-0.12714655697345734 0.02318895235657692 0.7540000081062317 103 97 83
-0.12592610716819763 0.02318895235657692 0.7540000081062317 124 120 101
-0.12487104535102844 0.02321970835328102 0.7550000548362732 143 139 120
-0.12381274253129959 0.023250462487339973 0.7560000419616699 154 152 133
-0.12258904427289963 0.023250462487339973 0.7560000419616699 165 163 144
-0.12152587622404099 0.023281216621398926 0.7570000290870667 170 169 152
-0.12045948207378387 0.023311970755457878 0.7580000162124634 171 170 153
-0.11923254281282425 0.023311970755457878 0.7580000162124634 168 165 148
-0.11831696331501007 0.023373480886220932 0.7600000500679016 80 77 60
-0.11708679795265198 0.023373480886220932 0.7600000500679016 71 58 43
-0.11585662513971329 0.023373480886220932 0.7600000500679016 71 58 43
-0.11477728188037872 0.023404235020279884 0.7610000371932983 68 57 46
-0.1135454848408699 0.023404235020279884 0.7610000371932983 66 55 44
-0.11246127635240555 0.023434991016983986 0.7620000243186951 60 50 41
-0.11122786998748779 0.023434991016983986 0.7620000243186951 60 50 41
-0.10999445617198944 0.023434991016983986 0.7620000243186951 59 48 42
-0.10890377312898636 0.023465745151042938 0.7630000114440918 58 47 41
-0.10766874998807907 0.023465745151042938 0.7630000114440918 55 45 36
-0.10643371939659119 0.023465745151042938 0.7630000114440918 55 45 36
-0.10533658415079117 0.02349650114774704 0.7640000581741333 51 46 36
-0.10409992933273315 0.02349650114774704 0.7640000581741333 49 44 34
-0.10299791395664215 0.023527255281805992 0.76500004529953 50 46 39
-0.10202568769454956 0.023588763549923897 0.7670000195503235 49 45 38
-0.10078418254852295 0.023588763549923897 0.7670000195503235 44 43 35
-0.09967245906591415 0.02361951768398285 0.7680000066757202 45 44 36
-0.09855750948190689 0.02365027368068695 0.7690000534057617 45 44 36
-0.09731276333332062 0.02365027368068695 0.7690000534057617 45 44 36
-0.09631787240505219 0.023711781948804855 0.7710000276565552 52 46 39
-0.09506990015506744 0.023711781948804855 0.7710000276565552 51 45 38
-0.09394361078739166 0.023742536082863808 0.7720000147819519 158 159 146
-0.09281408786773682 0.02377329207956791 0.7730000615119934 153 154 141
-0.09156287461519241 0.02377329207956791 0.7730000615119934 156 156 137
-0.09042848646640778 0.02380404621362686 0.7740000486373901 156 156 137
-0.0894060805439949 0.023865554481744766 0.7760000228881836 157 155 136
-0.0881500095129013 0.023865554481744766 0.7760000228881836 157 155 136
-0.08700591325759888 0.02389630861580372 0.7770000100135803 157 155 136
-0.08585859090089798 0.02392706461250782 0.7780000567436218 158 156 137
-0.08459927886724472 0.02392706461250782 0.7780000567436218 157 155 136
-0.08344709128141403 0.023957818746566772 0.7790000438690186 158 156 137
-0.08218616247177124 0.023957818746566772 0.7790000438690186 158 156 137
-0.08102911710739136 0.023988572880625725 0.7800000309944153 157 155 136
-0.07976657152175903 0.023988572880625725 0.7800000309944153 158 156 137
-0.07850402593612671 0.023988572880625725 0.7800000309944153 157 155 136
-0.07743953913450241 0.02405008301138878 0.7820000648498535 157 155 136
-0.0762711688876152 0.02408083714544773 0.7830000519752502 157 155 136
-0.07500375807285309 0.02408083714544773 0.7830000519752502 155 155 136
-0.07383053004741669 0.024111591279506683 0.784000039100647 155 155 136
-0.07256150990724564 0.024111591279506683 0.784000039100647 152 152 133
-0.07129249721765518 0.024111591279506683 0.784000039100647 159 159 140
-0.07011278718709946 0.024142345413565636 0.7850000262260437 82 78 64
-0.06884215027093887 0.024142345413565636 0.7850000262260437 47 43 29
-0.06765758991241455 0.024173099547624588 0.7860000133514404 47 45 33
-0.06638532876968384 0.024173099547624588 0.7860000133514404 44 42 30
-0.06511306762695312 0.024173099547624588 0.7860000133514404 38 37 29
-0.06392204016447067 0.02420385554432869 0.7870000600814819 38 37 29
-0.06264816224575043 0.02420385554432869 0.7870000600814819 36 37 29
-0.06137429177761078 0.02420385554432869 0.7870000600814819 36 37 29
-0.060176774859428406 0.024234609678387642 0.7880000472068787 34 37 29
-0.058901283890008926 0.024234609678387642 0.7880000472068787 33 36 28
-0.05762578919529915 0.024234609678387642 0.7880000472068787 33 35 29
-0.056421805173158646 0.024265363812446594 0.7890000343322754 32 34 28
-0.05514468625187874 0.024265363812446594 0.7890000343322754 32 34 28
-0.05393584817647934 0.024296117946505547 0.7900000214576721 32 34 28
-0.052790429443120956 0.0243576280772686 0.7920000553131104 33 35 29
-0.05150846019387245 0.0243576280772686 0.7920000553131104 34 36 30
-0.05022648721933365 0.0243576280772686 0.7920000553131104 34 36 30
-0.04894452169537544 0.0243576280772686 0.7920000553131104 37 39 33
-0.04772273078560829 0.024388382211327553 0.7930000424385071 44 38 31
-0.0465562641620636 0.024449890479445457 0.7950000166893005 54 48 41
-0.0452694408595562 0.024449890479445457 0.7950000166893005 162 163 148
-0.04403793811798096 0.02448064647614956 0.796000063419342 155 156 141
-0.04280320182442665 0.02451140061020851 0.7970000505447388 156 158 140
-0.04151313751935959 0.02451140061020851 0.7970000505447388 157 159 141
-0.04027354344725609 0.024542154744267464 0.7980000376701355 160 160 141
-0.039030712097883224 0.024572908878326416 0.7990000247955322 160 160 141
-0.0377374105155468 0.024572908878326416 0.7990000247955322 163 161 142
-0.03653533756732941 0.02463441900908947 0.8010000586509705 163 161 142
-0.035238802433013916 0.02463441900908947 0.8010000586509705 163 162 140
-0.03394226357340813 0.02463441900908947 0.8010000586509705 165 164 142
-0.03268648311495781 0.024665173143148422 0.8020000457763672 165 164 142
-0.03138832375407219 0.024665173143148422 0.8020000457763672 166 165 143
-0.030127689242362976 0.024695927277207375 0.8030000329017639 166 165 143
-0.0288638137280941 0.024726681411266327 0.8040000200271606 166 165 143
-0.027562422677874565 0.024726681411266327 0.8040000200271606 167 166 144
-0.026293693110346794 0.02475743740797043 0.8050000667572021 167 166 144
-0.024990681558847427 0.02475743740797043 0.8050000667572021 167 166 144
-0.02368767000734806 0.02475743740797043 0.8050000667572021 168 167 145
-0.022384658455848694 0.02475743740797043 0.8050000667572021 168 167 145
-0.021081646904349327 0.02475743740797043 0.8050000667572021 168 167 145
-0.019827773794531822 0.024818947538733482 0.8070000410079956 169 168 146
-0.018521524965763092 0.024818947538733482 0.8070000410079956 168 167 145
-0.017215276136994362 0.024818947538733482 0.8070000410079956 170 169 147
-0.01590902730822563 0.024818947538733482 0.8070000410079956 170 169 147
-0.014602778479456902 0.024818947538733482 0.8070000410079956 169 167 148
-0.013296529650688171 0.024818947538733482 0.8070000410079956 177 175 156
-0.011990279890596867 0.024818947538733482 0.8070000410079956 107 105 91
-0.010684031061828136 0.024818947538733482 0.8070000410079956 106 104 90
-0.22889739274978638 0.02253144606947899 0.6960000395774841 26 27 24
-0.22777080535888672 0.02253144606947899 0.6960000395774841 26 27 24
-0.22664424777030945 0.02253144606947899 0.6960000395774841 26 27 24
-0.2258416712284088 0.022563818842172623 0.6970000267028809 27 28 25
-0.22471347451210022 0.022563818842172623 0.6970000267028809 24 29 25
-0.22358527779579163 0.022563818842172623 0.6970000267028809 24 29 25
-0.22277623414993286 0.022596189752221107 0.6980000138282776 26 31 27
-0.22164642810821533 0.022596189752221107 0.6980000138282776 26 31 27
-0.2205166071653366 0.022596189752221107 0.6980000138282776 26 31 27
-0.22001542150974274 0.022660937160253525 0.7000000476837158 27 32 28
-0.21950772404670715 0.022725682705640793 0.7020000219345093 27 32 28
-0.2183714359998703 0.022725682705640793 0.7020000219345093 29 34 30
-0.21723514795303345 0.022725682705640793 0.7020000219345093 32 33 30
-0.2160988748073578 0.022725682705640793 0.7020000219345093 36 37 34
-0.21557500958442688 0.02279042825102806 0.7040000557899475 44 35 30
-0.21504466235637665 0.02285517379641533 0.706000030040741 111 102 97
-0.21390189230442047 0.02285517379641533 0.706000030040741 172 168 154
-0.2127591222524643 0.02285517379641533 0.706000030040741 162 158 144
-0.212215855717659 0.022919917479157448 0.7080000042915344 165 162 145
-0.21106983721256256 0.022919917479157448 0.7080000042915344 166 163 146
-0.2102203518152237 0.02295229211449623 0.7090000510215759 167 164 147
-0.20936760306358337 0.022984664887189865 0.7100000381469727 167 164 147
-0.20821836590766907 0.022984664887189865 0.7100000381469727 166 162 148
-0.20706911385059357 0.022984664887189865 0.7100000381469727 166 162 148
-0.20591989159584045 0.022984664887189865 0.7100000381469727 166 162 148
-0.20505905151367188 0.0230170376598835 0.7110000252723694 167 163 149
-0.20419497787952423 0.023049408569931984 0.7120000123977661 167 164 147
-0.20304250717163086 0.023049408569931984 0.7120000123977661 167 164 147
-0.20217359066009521 0.023081783205270767 0.7130000591278076 169 164 147
-0.2013014405965805 0.0231141559779644 0.7140000462532043 169 164 147
-0.20014572143554688 0.0231141559779644 0.7140000462532043 168 163 146
-0.19926869869232178 0.023146528750658035 0.7150000333786011 168 163 146
-0.19811135530471802 0.023146528750658035 0.7150000333786011 168 163 146
-0.19695401191711426 0.023146528750658035 0.7150000333786011 169 164 147
-0.19634437561035156 0.023211272433400154 0.7170000076293945 168 163 146
-0.19518379867076874 0.023211272433400154 0.7170000076293945 168 163 146
-0.19456444680690765 0.02327601984143257 0.7190000414848328 167 162 145
-0.1936696171760559 0.023308392614126205 0.7200000286102295 167 162 145
-0.1925041824579239 0.023308392614126205 0.7200000286102295 162 159 142
-0.19160449504852295 0.02334076352417469 0.7210000157356262 161 158 141
-0.19096574187278748 0.023405510932207108 0.7230000495910645 51 47 33
-0.18979544937610626 0.023405510932207108 0.7230000495910645 56 52 38
-0.18888606131076813 0.02343788370490074 0.7240000367164612 46 48 37
-0.18771415948867798 0.02343788370490074 0.7240000367164612 42 44 33
-0.18679989874362946 0.023470256477594376 0.7250000238418579 40 41 33
-0.18562640249729156 0.023470256477594376 0.7250000238418579 39 40 32
-0.1844528764486313 0.023470256477594376 0.7250000238418579 37 40 32
-0.18353214859962463 0.02350262738764286 0.7260000109672546 36 39 31
-0.18260818719863892 0.023535002022981644 0.7270000576972961 34 36 30
-0.18143144249916077 0.023535002022981644 0.7270000576972961 36 38 32
-0.18050262331962585 0.023567374795675278 0.7280000448226929 34 36 30
-0.17932423949241638 0.023567374795675278 0.7280000448226929 33 35 29
-0.17839057743549347 0.023599747568368912 0.7290000319480896 34 36 30
-0.1774536669254303 0.023632118478417397 0.7300000190734863 33 35 29
-0.17627204954624176 0.023632118478417397 0.7300000190734863 33 35 29
-0.17509043216705322 0.023632118478417397 0.7300000190734863 33 35 29
-0.17438529431819916 0.023696865886449814 0.7320000529289246 32 34 28
-0.17320044338703156 0.023696865886449814 0.7320000529289246 33 35 29
-0.17201559245586395 0.023696865886449814 0.7320000529289246 34 36 30
-0.1710641086101532 0.023729238659143448 0.7330000400543213 36 38 32
-0.16987764835357666 0.023729238659143448 0.7330000400543213 40 38 32
-0.1689213067293167 0.023761611431837082 0.734000027179718 45 43 37
-0.16773323714733124 0.023761611431837082 0.734000027179718 45 38 33
-0.1667720377445221 0.023793982341885567 0.7350000143051147 147 140 135
-0.16580761969089508 0.02382635697722435 0.7360000610351562 159 158 141
-0.16461630165576935 0.02382635697722435 0.7360000610351562 158 157 140
-0.16342496871948242 0.02382635697722435 0.7360000610351562 163 159 140
-0.16245406866073608 0.023858729749917984 0.737000048160553 163 159 140
-0.16104231774806976 0.02382635697722435 0.7360000610351562 164 160 141
-0.15985099971294403 0.02382635697722435 0.7360000610351562 165 161 142
-0.1586596816778183 0.02382635697722435 0.7360000610351562 169 162 144
-0.15746834874153137 0.02382635697722435 0.7360000610351562 169 162 144
-0.15627701580524445 0.02382635697722435 0.7360000610351562 169 163 142
-0.1550856977701187 0.02382635697722435 0.7360000610351562 169 163 142
-0.15389437973499298 0.02382635697722435 0.7360000610351562 169 163 142
-0.152910515666008 0.023858729749917984 0.737000048160553 169 163 142
-0.15171757340431213 0.023858729749917984 0.737000048160553 167 164 142
-0.15052463114261627 0.023858729749917984 0.737000048160553 165 162 140
-0.14953431487083435 0.023891102522611618 0.7380000352859497 165 162 140
-0.14833974838256836 0.023891102522611618 0.7380000352859497 165 162 140
-0.14734455943107605 0.023923473432660103 0.7390000224113464 165 163 139
-0.14614838361740112 0.023923473432660103 0.7390000224113464 165 163 139
-0.1451483517885208 0.023955846205353737 0.7400000095367432 167 165 141
-0.14414508640766144 0.02398822084069252 0.7410000562667847 164 162 138
-0.14294567704200745 0.02398822084069252 0.7410000562667847 170 165 142
-0.1421288251876831 0.024052966386079788 0.7430000305175781 147 142 119
-0.14111584424972534 0.024085337296128273 0.7440000176429749 51 45 24
-0.13991156220436096 0.024085337296128273 0.7440000176429749 50 44 23
-0.13908016681671143 0.02415008470416069 0.7460000514984131 54 50 36
-0.13787266612052917 0.02415008470416069 0.7460000514984131 61 57 43
-0.13703154027462006 0.02421482838690281 0.7480000257492065 74 70 58
-0.13582077622413635 0.02421482838690281 0.7480000257492065 90 86 74
-0.13461004197597504 0.02421482838690281 0.7480000257492065 114 108 94
-0.1335776299238205 0.024247201159596443 0.7490000128746033 129 123 109
-0.13254199922084808 0.024279575794935226 0.7500000596046448 145 143 124
-0.13132800161838531 0.024279575794935226 0.7500000596046448 158 156 137
-0.13028749823570251 0.02431194856762886 0.7510000467300415 168 168 149
-0.12924376130104065 0.024344321340322495 0.7520000338554382 167 167 148
-0.12802653014659882 0.024344321340322495 0.7520000338554382 169 168 146
-0.12697793543338776 0.02437669225037098 0.753000020980835 167 166 144
-0.125759094953537 0.02437669225037098 0.753000020980835 167 164 142
-0.12487104535102844 0.024441439658403397 0.7550000548362732 168 165 143
-0.12364897131919861 0.024441439658403397 0.7550000548362732 163 161 137
-0.12242688983678818 0.024441439658403397 0.7550000548362732 163 161 137
-0.12152587622404099 0.024506183341145515 0.7570000290870667 163 162 140
-0.12045948207378387 0.02453855611383915 0.7580000162124634 163 162 140
-0.11923254281282425 0.02453855611383915 0.7580000162124634 175 171 152
-0.11816129088401794 0.024570930749177933 0.7590000629425049 106 102 83
-0.11693274229764938 0.024570930749177933 0.7590000629425049 64 54 38
-0.11585662513971329 0.024603303521871567 0.7600000500679016 69 59 43
-0.1146264597773552 0.024603303521871567 0.7600000500679016 64 55 44
-0.11339627951383591 0.024603303521871567 0.7600000500679016 62 53 42
-0.11231368780136108 0.0246356762945652 0.7610000371932983 56 48 41
-0.11108190566301346 0.0246356762945652 0.7610000371932983 55 47 40
-0.10985010862350464 0.0246356762945652 0.7610000371932983 53 45 38
-0.10876104235649109 0.024668047204613686 0.7620000243186951 51 43 36
-0.10766874998807907 0.02470041997730732 0.7630000114440918 48 42 35
-0.10643371939659119 0.02470041997730732 0.7630000114440918 48 42 35
-0.1051986962556839 0.02470041997730732 0.7630000114440918 46 42 35
-0.10396366566419601 0.02470041997730732 0.7630000114440918 45 41 34
-0.10286327451467514 0.024732794612646103 0.7640000581741333 44 43 35
-0.10189267247915268 0.024797538295388222 0.7660000324249268 44 43 35
-0.1006527841091156 0.024797538295388222 0.7660000324249268 43 42 34
-0.09954267740249634 0.024829911068081856 0.7670000195503235 43 42 34
-0.09842934459447861 0.02486228384077549 0.7680000066757202 43 42 34
-0.09718621522188187 0.02486228384077549 0.7680000066757202 43 42 34
-0.09619294852018356 0.024927031248807907 0.7700000405311584 49 43 36
-0.09494659304618835 0.024927031248807907 0.7700000405311584 42 36 29
-0.0938219204545021 0.024959402158856392 0.7710000276565552 140 136 124
-0.0926940068602562 0.024991774931550026 0.7720000147819519 161 157 145
-0.09144441783428192 0.024991774931550026 0.7720000147819519 156 155 138
-0.09031166136264801 0.02502414956688881 0.7730000615119934 156 155 138
-0.08929087221622467 0.025088895112276077 0.7750000357627869 158 156 137
-0.08803641051054001 0.025088895112276077 0.7750000357627869 157 155 136
-0.08689393848180771 0.025121266022324562 0.7760000228881836 157 155 136
-0.08574822545051575 0.025153638795018196 0.7770000100135803 158 156 137
-0.08449053764343262 0.025153638795018196 0.7770000100135803 157 155 136
-0.08323284238576889 0.025153638795018196 0.7770000100135803 158 156 137
-0.08197515457868576 0.025153638795018196 0.7770000100135803 158 156 137
-0.08082135766744614 0.02518601343035698 0.7780000567436218 158 156 137
-0.07966430485248566 0.025218386203050613 0.7790000438690186 158 156 137
-0.07840338349342346 0.025218386203050613 0.7790000438690186 157 155 136
-0.07724148035049438 0.025250757113099098 0.7800000309944153 157 155 136
-0.07617375999689102 0.025315504521131516 0.7820000648498535 157 155 136
-0.07490797340869904 0.025315504521131516 0.7820000648498535 158 156 137
-0.07373636215925217 0.02534787729382515 0.7830000519752502 157 155 136
-0.07246895879507065 0.02534787729382515 0.7830000519752502 153 153 134
-0.07120156288146973 0.02534787729382515 0.7830000519752502 160 160 141
-0.07002346962690353 0.025380250066518784 0.784000039100647 131 129 115
-0.06875444948673248 0.025380250066518784 0.784000039100647 40 38 24
-0.06765758991241455 0.025444993749260902 0.7860000133514404 49 44 34
-0.06638532876968384 0.025444993749260902 0.7860000133514404 46 41 31
-0.06511306762695312 0.025444993749260902 0.7860000133514404 40 40 29
-0.06392204016447067 0.025477368384599686 0.7870000600814819 38 38 27
-0.06264816224575043 0.025477368384599686 0.7870000600814819 36 37 29
-0.06137429177761078 0.025477368384599686 0.7870000600814819 35 36 28
-0.060176774859428406 0.02550974115729332 0.7880000472068787 33 36 28
-0.058901283890008926 0.02550974115729332 0.7880000472068787 33 36 28
-0.05762578919529915 0.02550974115729332 0.7880000472068787 32 34 28
-0.056421805173158646 0.025542112067341805 0.7890000343322754 32 34 28
-0.05514468625187874 0.025542112067341805 0.7890000343322754 32 34 28
-0.05393584817647934 0.02557448484003544 0.7900000214576721 32 34 28
-0.052790429443120956 0.025639232248067856 0.7920000553131104 32 34 28
-0.05150846019387245 0.025639232248067856 0.7920000553131104 34 36 30
-0.05022648721933365 0.025639232248067856 0.7920000553131104 34 36 30
-0.04894452169537544 0.025639232248067856 0.7920000553131104 36 38 32
-0.04772273078560829 0.02567160502076149 0.7930000424385071 47 41 34
-0.0465562641620636 0.02573634870350361 0.7950000166893005 42 36 29
-0.0452694408595562 0.02573634870350361 0.7950000166893005 145 144 127
-0.04403793811798096 0.025768723338842392 0.796000063419342 158 157 140
-0.04280320182442665 0.025801096111536026 0.7970000505447388 156 158 140
-0.04151313751935959 0.025801096111536026 0.7970000505447388 157 159 141
-0.04027354344725609 0.02583346702158451 0.7980000376701355 160 160 141
-0.039030712097883224 0.025865839794278145 0.7990000247955322 160 160 141
-0.0377374105155468 0.025865839794278145 0.7990000247955322 163 161 142
-0.03653533756732941 0.025930587202310562 0.8010000586509705 163 161 142
-0.035238802433013916 0.025930587202310562 0.8010000586509705 163 161 142
-0.03394226357340813 0.025930587202310562 0.8010000586509705 163 161 142
-0.03268648311495781 0.025962959975004196 0.8020000457763672 165 163 144
-0.03138832375407219 0.025962959975004196 0.8020000457763672 165 163 144
-0.030127689242362976 0.02599533088505268 0.8030000329017639 166 164 145
-0.0288638137280941 0.026027703657746315 0.8040000200271606 166 164 145
-0.027562422677874565 0.026027703657746315 0.8040000200271606 167 165 146
-0.026293693110346794 0.0260600782930851 0.8050000667572021 167 165 146
-0.024990681558847427 0.0260600782930851 0.8050000667572021 167 165 146
-0.02368767000734806 0.0260600782930851 0.8050000667572021 168 166 147
-0.022384658455848694 0.0260600782930851 0.8050000667572021 168 167 145
-0.021081646904349327 0.0260600782930851 0.8050000667572021 168 167 145
-0.019827773794531822 0.026124821975827217 0.8070000410079956 168 167 145
-0.018521524965763092 0.026124821975827217 0.8070000410079956 168 167 145
-0.017215276136994362 0.026124821975827217 0.8070000410079956 169 168 146
-0.01590902730822563 0.026124821975827217 0.8070000410079956 170 169 147
-0.014602778479456902 0.026124821975827217 0.8070000410079956 167 167 148
-0.013296529650688171 0.026124821975827217 0.8070000410079956 171 171 152
-0.011990279890596867 0.026124821975827217 0.8070000410079956 128 126 112
-0.010684031061828136 0.026124821975827217 0.8070000410079956 102 100 86
-0.2296934872865677 0.023623712360858917 0.6950000524520874 26 27 24
-0.22856852412223816 0.023623712360858917 0.6950000524520874 26 27 24
-0.22744356095790863 0.023623712360858917 0.6950000524520874 26 27 24
-0.2263186126947403 0.023623712360858917 0.6950000524520874 26 27 24
-0.2255176603794098 0.023657701909542084 0.6960000395774841 26 27 24
-0.22439107298851013 0.023657701909542084 0.6960000395774841 23 28 24
-0.22326450049877167 0.023657701909542084 0.6960000395774841 24 29 25
-0.22245706617832184 0.0236916933208704 0.6970000267028809 26 31 27
-0.22164642810821533 0.023725682869553566 0.6980000138282776 26 31 27
-0.2205166071653366 0.023725682869553566 0.6980000138282776 26 31 27
-0.2197011113166809 0.02375967614352703 0.6990000605583191 27 32 28
-0.21919505298137665 0.023827657103538513 0.7010000348091125 27 32 28
-0.21806037425994873 0.023827657103538513 0.7010000348091125 28 33 29
-0.21723514795303345 0.02386164665222168 0.7020000219345093 31 32 29
-0.2160988748073578 0.02386164665222168 0.7020000219345093 34 35 32
-0.2152687907218933 0.023895638063549995 0.703000009059906 47 37 35
-0.2147400677204132 0.023963620886206627 0.7050000429153442 84 74 72
-0.21359892189502716 0.023963620886206627 0.7050000429153442 172 168 156
-0.2127591222524643 0.023997610434889793 0.706000030040741 161 157 145
-0.21191611886024475 0.02403160184621811 0.7070000171661377 163 160 143
-0.21077172458171844 0.02403160184621811 0.7070000171661377 166 163 146
-0.20992383360862732 0.024065591394901276 0.7080000042915344 167 164 147
-0.20907272398471832 0.02409958466887474 0.7090000510215759 166 163 146
-0.20792509615421295 0.02409958466887474 0.7090000510215759 166 163 146
-0.20706911385059357 0.024133576080203056 0.7100000381469727 166 163 146
-0.20591989159584045 0.024133576080203056 0.7100000381469727 166 163 146
-0.20505905151367188 0.024167565628886223 0.7110000252723694 167 164 147
-0.20390819013118744 0.024167565628886223 0.7110000252723694 167 164 147
-0.202757328748703 0.024167565628886223 0.7110000252723694 166 163 146
-0.2018900215625763 0.02420155704021454 0.7120000123977661 168 163 146
-0.2013014405965805 0.02426953986287117 0.7140000462532043 169 164 147
-0.20014572143554688 0.02426953986287117 0.7140000462532043 169 164 147
-0.19926869869232178 0.024303529411554337 0.7150000333786011 167 162 145
-0.19811135530471802 0.024303529411554337 0.7150000333786011 168 163 146
-0.19695401191711426 0.024303529411554337 0.7150000333786011 169 164 147
-0.19607053697109222 0.024337520822882652 0.7160000205039978 168 163 146
-0.19491158425807953 0.024337520822882652 0.7160000205039978 167 162 145
-0.19429384171962738 0.024405503645539284 0.718000054359436 167 162 145
-0.19340063631534576 0.02443949319422245 0.7190000414848328 167 162 145
-0.19223682582378387 0.02443949319422245 0.7190000414848328 162 159 142
-0.19133876264095306 0.024473484605550766 0.7200000286102295 167 164 147
-0.19070161879062653 0.024541467428207397 0.7220000624656677 59 58 41
-0.18953295052051544 0.024541467428207397 0.7220000624656677 56 55 38
-0.18862517178058624 0.024575458839535713 0.7230000495910645 46 48 37
-0.18745487928390503 0.024575458839535713 0.7230000495910645 42 44 33
-0.18679989874362946 0.024643439799547195 0.7250000238418579 40 41 33
-0.18562640249729156 0.024643439799547195 0.7250000238418579 39 40 32
-0.1844528764486313 0.024643439799547195 0.7250000238418579 39 40 32
-0.18353214859962463 0.024677429348230362 0.7260000109672546 38 39 31
-0.18260818719863892 0.024711422622203827 0.7270000576972961 34 36 30
-0.18143144249916077 0.024711422622203827 0.7270000576972961 34 36 30
-0.18025468289852142 0.024711422622203827 0.7270000576972961 34 36 30
-0.17932423949241638 0.024745412170886993 0.7280000448226929 33 35 29
-0.1781458705663681 0.024745412170886993 0.7280000448226929 33 35 29
-0.17721058428287506 0.02477940358221531 0.7290000319480896 33 35 29
-0.17603059113025665 0.02477940358221531 0.7290000319480896 33 35 29
-0.17509043216705322 0.024813393130898476 0.7300000190734863 33 35 29
-0.17390881478786469 0.024813393130898476 0.7300000190734863 33 35 29
-0.17272721230983734 0.024813393130898476 0.7300000190734863 33 35 29
-0.17201559245586395 0.024881375953555107 0.7320000529289246 36 36 30
-0.17083074152469635 0.024881375953555107 0.7320000529289246 38 38 32
-0.16964589059352875 0.024881375953555107 0.7320000529289246 40 38 32
-0.16869117319583893 0.024915367364883423 0.7330000400543213 45 43 37
-0.1675047129392624 0.024915367364883423 0.7330000400543213 46 37 32
-0.16654513776302338 0.02494935691356659 0.734000027179718 115 106 101
-0.1653570532798767 0.02494935691356659 0.734000027179718 166 163 146
-0.16416896879673004 0.02494935691356659 0.734000027179718 159 156 139
-0.1632029116153717 0.024983348324894905 0.7350000143051147 161 159 140
-0.1622336357831955 0.02501734159886837 0.7360000610351562 161 159 140
-0.1608235090970993 0.024983348324894905 0.7350000143051147 164 160 141
-0.1596338003873825 0.024983348324894905 0.7350000143051147 165 161 142
-0.1584440916776657 0.024983348324894905 0.7350000143051147 165 161 142
-0.15746834874153137 0.02501734159886837 0.7360000610351562 165 161 142
-0.15627701580524445 0.02501734159886837 0.7360000610351562 164 161 139
-0.1550856977701187 0.02501734159886837 0.7360000610351562 165 162 140
-0.15389437973499298 0.02501734159886837 0.7360000610351562 164 161 139
-0.152910515666008 0.025051331147551537 0.737000048160553 165 162 140
-0.15171757340431213 0.025051331147551537 0.737000048160553 164 161 139
-0.15052463114261627 0.025051331147551537 0.737000048160553 164 161 139
-0.14953431487083435 0.025085322558879852 0.7380000352859497 169 166 144
-0.14833974838256836 0.025085322558879852 0.7380000352859497 171 168 146
-0.14734455943107605 0.02511931210756302 0.7390000224113464 174 171 149
-0.14614838361740112 0.02511931210756302 0.7390000224113464 168 165 143
-0.1451483517885208 0.025153303518891335 0.7400000095367432 171 165 144
-0.14414508640766144 0.02518729493021965 0.7410000562667847 165 159 138
-0.14294567704200745 0.02518729493021965 0.7410000562667847 155 145 123
-0.1421288251876831 0.025255275890231133 0.7430000305175781 134 124 102
-0.14111584424972534 0.025289267301559448 0.7440000176429749 113 110 88
-0.13991156220436096 0.025289267301559448 0.7440000176429749 145 142 120
-0.13908016681671143 0.02535725012421608 0.7460000514984131 160 159 137
-0.13787266612052917 0.02535725012421608 0.7460000514984131 166 165 143
-0.13703154027462006 0.025425231084227562 0.7480000257492065 167 165 146
-0.13582077622413635 0.025425231084227562 0.7480000257492065 166 164 145
-0.13461004197597504 0.025425231084227562 0.7480000257492065 168 164 145
-0.1335776299238205 0.02545922063291073 0.7490000128746033 169 165 146
-0.13254199922084808 0.025493213906884193 0.7500000596046448 168 165 143
-0.13132800161838531 0.025493213906884193 0.7500000596046448 164 161 139
-0.13028749823570251 0.02552720531821251 0.7510000467300415 163 161 137
-0.12924376130104065 0.025561194866895676 0.7520000338554382 165 163 139
-0.12802653014659882 0.025561194866895676 0.7520000338554382 165 163 139
-0.12697793543338776 0.02559518627822399 0.753000020980835 165 163 139
-0.125759094953537 0.02559518627822399 0.753000020980835 164 162 138
-0.12487104535102844 0.025663169100880623 0.7550000548362732 165 163 139
-0.12364897131919861 0.025663169100880623 0.7550000548362732 165 163 139
-0.12242688983678818 0.025663169100880623 0.7550000548362732 167 165 141
-0.12152587622404099 0.025731150060892105 0.7570000290870667 168 166 142
-0.12045948207378387 0.02576513960957527 0.7580000162124634 167 165 141
-0.11923254281282425 0.02576513960957527 0.7580000162124634 170 167 145
-0.11816129088401794 0.025799132883548737 0.7590000629425049 149 146 124
-0.11693274229764938 0.025799132883548737 0.7590000629425049 58 48 32
-0.11585662513971329 0.025833122432231903 0.7600000500679016 68 58 42
-0.1146264597773552 0.025833122432231903 0.7600000500679016 62 53 42
-0.11339627951383591 0.025833122432231903 0.7600000500679016 59 50 39
-0.11231368780136108 0.02586711384356022 0.7610000371932983 52 46 39
-0.11108190566301346 0.02586711384356022 0.7610000371932983 51 45 38
-0.10985010862350464 0.02586711384356022 0.7610000371932983 47 43 36
-0.10876104235649109 0.025901103392243385 0.7620000243186951 46 42 35
-0.10766874998807907 0.0259350948035717 0.7630000114440918 45 41 34
-0.10643371939659119 0.0259350948035717 0.7630000114440918 44 40 33
-0.1051986962556839 0.0259350948035717 0.7630000114440918 42 41 33
-0.10396366566419601 0.0259350948035717 0.7630000114440918 42 41 33
-0.10286327451467514 0.025969088077545166 0.7640000581741333 42 41 33
-0.10189267247915268 0.026037069037556648 0.7660000324249268 42 41 33
-0.1006527841091156 0.026037069037556648 0.7660000324249268 42 41 33
-0.09954267740249634 0.026071058586239815 0.7670000195503235 41 40 32
-0.09842934459447861 0.02610504999756813 0.7680000066757202 42 41 33
