ply
format ascii 1.0
element vertex 677
property float32 x
property float32 y
property float32 z
property uchar red
property uchar green
property uchar blue
end_header
0.18869264423847198 0.0026938803493976593 0.7110000252723694 61 58 48
0.18984831869602203 0.0026938803493976593 0.7110000252723694 65 62 52
0.19100399315357208 0.0026938803493976593 0.7110000252723694 75 68 58
0.19215965270996094 0.0026938803493976593 0.7110000252723694 78 71 61
0.1933153122663498 0.0026938803493976593 0.7110000252723694 116 107 94
0.19447098672389984 0.0026938803493976593 0.7110000252723694 208 199 186
0.1950763761997223 0.0026863026432693005 0.7090000510215759 198 194 180
0.1962287724018097 0.0026863026432693005 0.7090000510215759 198 194 180
0.19738119840621948 0.0026863026432693005 0.7090000510215759 200 196 182
0.1982535868883133 0.0026825135573744774 0.7080000042915344 200 196 182
0.19940435886383057 0.0026825135573744774 0.7080000042915344 201 197 183
0.20055516064167023 0.0026825135573744774 0.7080000042915344 200 196 182
0.2017059624195099 0.0026825135573744774 0.7080000042915344 200 196 182
0.20285674929618835 0.0026825135573744774 0.7080000042915344 201 197 183
0.2037193924188614 0.002678724704310298 0.7070000171661377 200 196 182
0.20486855506896973 0.002678724704310298 0.7070000171661377 200 196 182
0.20601773262023926 0.002678724704310298 0.7070000171661377 201 197 183
0.2071668803691864 0.002678724704310298 0.7070000171661377 201 197 183
0.20831605792045593 0.002678724704310298 0.7070000171661377 201 197 183
0.20946522057056427 0.002678724704310298 0.7070000171661377 201 197 183
0.2106143683195114 0.002678724704310298 0.7070000171661377 201 197 183
0.21176354587078094 0.002678724704310298 0.7070000171661377 200 196 182
0.21321386098861694 0.0026825135573744774 0.7080000042915344 201 197 183
0.2143646627664566 0.0026825135573744774 0.7080000042915344 201 197 183
0.21551543474197388 0.0026825135573744774 0.7080000042915344 201 197 183
0.21666622161865234 0.0026825135573744774 0.7080000042915344 201 197 183
0.217817023396492 0.0026825135573744774 0.7080000042915344 198 194 180
0.21896779537200928 0.0026825135573744774 0.7080000042915344 198 194 180
0.22011859714984894 0.0026825135573744774 0.7080000042915344 207 200 195
0.2212693989276886 0.0026825135573744774 0.7080000042915344 92 85 80
0.22210602462291718 0.002678724704310298 0.7070000171661377 69 60 62
0.2232551872730255 0.002678724704310298 0.7070000171661377 68 59 61
0.2240869551897049 0.0026749358512461185 0.706000030040741 62 60 60
0.2252345085144043 0.0026749358512461185 0.706000030040741 61 59 59
0.2263820320367813 0.0026749358512461185 0.706000030040741 59 60 57
0.22720730304718018 0.0026711472310125828 0.7050000429153442 60 61 58
0.22835321724414825 0.0026711472310125828 0.7050000429153442 59 61 55
0.22949911653995514 0.0026711472310125828 0.7050000429153442 59 61 55
0.2306450456380844 0.0026711472310125828 0.7050000429153442 61 61 55
0.2317909598350525 0.0026711472310125828 0.7050000429153442 60 60 54
0.2326064556837082 0.0026673583779484034 0.7040000557899475 57 57 51
0.23375074565410614 0.0026673583779484034 0.7040000557899475 59 59 53
0.23489505052566528 0.0026673583779484034 0.7040000557899475 61 61 55
0.23603934049606323 0.0026673583779484034 0.7040000557899475 60 60 54
0.2371836155653 0.0026673583779484034 0.7040000557899475 62 59 56
0.2379893660545349 0.0026635692920535803 0.703000009059906 62 59 56
0.23913203179836273 0.0026635692920535803 0.703000009059906 63 60 57
0.24027468264102936 0.0026635692920535803 0.703000009059906 63 60 57
0.24141734838485718 0.0026635692920535803 0.703000009059906 64 61 58
0.242560014128685 0.0026635692920535803 0.703000009059906 64 61 58
0.24335600435733795 0.002659780438989401 0.7020000219345093 68 65 62
0.24449706077575684 0.002659780438989401 0.7020000219345093 71 68 65
0.24563810229301453 0.002659780438989401 0.7020000219345093 82 72 70
0.24677914381027222 0.002659780438989401 0.7020000219345093 97 87 85
0.2479201704263687 0.002659780438989401 0.7020000219345093 208 203 193
0.2490612119436264 0.002659780438989401 0.7020000219345093 200 195 185
0.2502022385597229 0.002659780438989401 0.7020000219345093 200 198 186
0.2513432800769806 0.002659780438989401 0.7020000219345093 199 197 185
0.2524843215942383 0.002659780438989401 0.7020000219345093 199 197 185
0.25362536311149597 0.002659780438989401 0.7020000219345093 200 198 186
0.2547663748264313 0.002659780438989401 0.7020000219345093 201 199 187
0.25590741634368896 0.002659780438989401 0.7020000219345093 200 198 186
0.25704848766326904 0.002659780438989401 0.7020000219345093 201 199 187
0.25818952918052673 0.002659780438989401 0.7020000219345093 201 199 187
0.25933054089546204 0.002659780438989401 0.7020000219345093 201 199 187
0.2604715824127197 0.002659780438989401 0.7020000219345093 201 199 187
0.2616126239299774 0.002659780438989401 0.7020000219345093 200 198 184
0.2627536654472351 0.002659780438989401 0.7020000219345093 201 199 185
0.2638947069644928 0.002659780438989401 0.7020000219345093 201 199 185
0.26465821266174316 0.0026559915859252214 0.7010000348091125 202 200 186
0.26579758524894714 0.0026559915859252214 0.7010000348091125 200 198 184
0.2665562331676483 0.0026522029656916857 0.7000000476837158 200 198 184
0.26731160283088684 0.0026484141126275063 0.6990000605583191 200 198 186
0.26844778656959534 0.0026484141126275063 0.6990000605583191 200 198 186
0.2691982388496399 0.002644625026732683 0.6980000138282776 199 197 185
0.27033278346061707 0.002644625026732683 0.6980000138282776 198 196 184
0.2710784077644348 0.0026408361736685038 0.6970000267028809 196 194 182
0.2722112834453583 0.0026408361736685038 0.6970000267028809 196 194 182
0.2733442187309265 0.0026408361736685038 0.6970000267028809 207 199 192
0.27408334612846375 0.0026370473206043243 0.6960000395774841 105 97 90
0.27521461248397827 0.0026370473206043243 0.6960000395774841 92 74 74
0.2763459086418152 0.0026370473206043243 0.6960000395774841 78 60 60
0.2774771749973297 0.0026370473206043243 0.6960000395774841 73 60 59
0.2786084711551666 0.0026370473206043243 0.6960000395774841 74 61 60
0.27973973751068115 0.0026370473206043243 0.6960000395774841 68 59 60
0.28087103366851807 0.0026370473206043243 0.6960000395774841 67 58 59
0.282002329826355 0.0026370473206043243 0.6960000395774841 64 58 56
0.2831335961818695 0.0026370473206043243 0.6960000395774841 65 59 57
0.2842648923397064 0.0026370473206043243 0.6960000395774841 66 61 56
0.28539618849754333 0.0026370473206043243 0.6960000395774841 66 61 56
0.2861157953739166 0.002633258467540145 0.6950000524520874 64 60 60
0.2872454524040222 0.002633258467540145 0.6950000524520874 65 61 61
0.2879601716995239 0.0026294696144759655 0.6940000057220459 65 61 62
0.2890882194042206 0.0026294696144759655 0.6940000057220459 65 61 62
0.2897980511188507 0.002625680761411786 0.6930000185966492 66 61 65
0.29050466418266296 0.0026218919083476067 0.6920000314712524 64 59 63
0.29162946343421936 0.0026218919083476067 0.6920000314712524 63 60 64
0.29275423288345337 0.0026218919083476067 0.6920000314712524 63 60 64
0.29387903213500977 0.0026218919083476067 0.6920000314712524 61 58 62
0.2950038015842438 0.0026218919083476067 0.6920000314712524 61 58 62
0.2961285710334778 0.0026218919083476067 0.6920000314712524 65 61 62
0.2972533702850342 0.0026218919083476067 0.6920000314712524 68 64 65
0.2979469895362854 0.0026181030552834272 0.6910000443458557 70 66 67
0.2990701496601105 0.0026181030552834272 0.6910000443458557 64 60 61
0.30019327998161316 0.0026181030552834272 0.6910000443458557 146 141 136
0.3013164699077606 0.0026181030552834272 0.6910000443458557 199 194 189
0.302001953125 0.002614314202219248 0.690000057220459 192 191 183
0.30312347412109375 0.002614314202219248 0.690000057220459 193 192 184
0.3042449951171875 0.002614314202219248 0.690000057220459 194 193 185
0.30536654591560364 0.002614314202219248 0.690000057220459 194 193 185
0.3060438632965088 0.0026105253491550684 0.6890000104904175 196 193 183
0.3071637749671936 0.0026105253491550684 0.6890000104904175 198 195 185
0.3082836866378784 0.0026105253491550684 0.6890000104904175 198 195 185
0.30940359830856323 0.0026105253491550684 0.6890000104904175 196 193 183
0.31052348017692566 0.0026105253491550684 0.6890000104904175 196 196 185
0.3116433918476105 0.0026105253491550684 0.6890000104904175 194 194 183
0.3127633035182953 0.0026105253491550684 0.6890000104904175 198 198 187
0.3138832151889801 0.0026105253491550684 0.6890000104904175 196 196 185
0.3150031268596649 0.0026105253491550684 0.6890000104904175 196 197 184
0.31566423177719116 0.002606736496090889 0.6880000233650208 200 201 188
0.31678250432014465 0.002606736496090889 0.6880000233650208 199 199 188
0.31790077686309814 0.002606736496090889 0.6880000233650208 201 201 190
0.319019079208374 0.002606736496090889 0.6880000233650208 201 201 190
0.3196720480918884 0.0026029476430267096 0.687000036239624 200 200 189
0.3207886815071106 0.0026029476430267096 0.687000036239624 204 204 193
0.32190534472465515 0.0026029476430267096 0.687000036239624 205 205 194
0.32255181670188904 0.00259915878996253 0.6860000491142273 204 204 193
0.32366684079170227 0.00259915878996253 0.6860000491142273 204 204 193
0.3247818946838379 0.00259915878996253 0.6860000491142273 206 203 193
0.32542186975479126 0.0025953699368983507 0.6850000619888306 206 203 193
0.32653525471687317 0.0025953699368983507 0.6850000619888306 205 200 190
0.32717031240463257 0.0025915810838341713 0.6840000152587891 205 200 190
0.3278021514415741 0.002587792230769992 0.6830000281333923 205 199 192
0.32891231775283813 0.002587792230769992 0.6830000281333923 208 202 195
0.3300224542617798 0.002587792230769992 0.6830000281333923 207 202 197
0.3311326205730438 0.002587792230769992 0.6830000281333923 205 200 195
0.3317563533782959 0.0025840033777058125 0.6820000410079956 205 200 195
0.3328648507595062 0.0025840033777058125 0.6820000410079956 205 200 195
0.33446308970451355 0.002587792230769992 0.6830000281333923 200 197 194
0.07928615808486938 0.003984673880040646 0.7360000610351562 192 190 178
0.08048246800899506 0.003984673880040646 0.7360000610351562 188 185 168
0.08167877048254013 0.003984673880040646 0.7360000610351562 189 186 169
0.08264986425638199 0.003973845392465591 0.734000027179718 190 187 170
0.08384291082620621 0.003973845392465591 0.734000027179718 189 186 169
0.08503595739603043 0.003973845392465591 0.734000027179718 189 186 169
0.08611153811216354 0.003968431614339352 0.7330000400543213 189 186 169
0.08730296045541763 0.003968431614339352 0.7330000400543213 189 186 169
0.08837366104125977 0.003963017836213112 0.7320000529289246 190 187 170
0.08956345915794373 0.003963017836213112 0.7320000529289246 189 186 169
0.09062927216291428 0.003957603592425585 0.7310000061988831 189 186 169
0.09169183671474457 0.003952189814299345 0.7300000190734863 189 186 169
0.09287839382886887 0.003952189814299345 0.7300000190734863 190 187 170
0.09406493604183197 0.003952189814299345 0.7300000190734863 189 187 168
0.09525149315595627 0.003952189814299345 0.7300000190734863 189 187 168
0.09643804281949997 0.003952189814299345 0.7300000190734863 190 188 169
0.09749085456132889 0.003946775570511818 0.7290000319480896 190 188 169
0.09867578744888306 0.003946775570511818 0.7290000319480896 190 188 169
0.09986070543527603 0.003946775570511818 0.7290000319480896 190 188 169
0.1010456308722496 0.003946775570511818 0.7290000319480896 189 187 168
0.10223055630922318 0.003946775570511818 0.7290000319480896 190 188 169
0.10327361524105072 0.003941361792385578 0.7280000448226929 190 188 169
0.10445691645145416 0.003941361792385578 0.7280000448226929 190 188 169
0.10564021021127701 0.003941361792385578 0.7280000448226929 190 188 169
0.10682351887226105 0.003941361792385578 0.7280000448226929 189 187 168
0.10815516859292984 0.003946775570511818 0.7290000319480896 188 186 167
0.10919010639190674 0.003941361792385578 0.7280000448226929 188 186 167
0.11037341505289078 0.003941361792385578 0.7280000448226929 188 186 167
0.11155670881271362 0.003941361792385578 0.7280000448226929 186 184 165
0.11258514970541 0.003935948014259338 0.7270000576972961 181 180 163
0.11376681923866272 0.003935948014259338 0.7270000576972961 189 188 171
0.11494848877191544 0.003935948014259338 0.7270000576972961 47 48 40
0.1159704178571701 0.003930533770471811 0.7260000109672546 40 41 33
0.11715046316385269 0.003930533770471811 0.7260000109672546 41 39 33
0.11833051592111588 0.003930533770471811 0.7260000109672546 40 38 32
0.11951056122779846 0.003930533770471811 0.7260000109672546 38 38 32
0.12069061398506165 0.003930533770471811 0.7260000109672546 38 38 32
0.12170279026031494 0.0039251199923455715 0.7250000238418579 39 40 32
0.1228812113404274 0.0039251199923455715 0.7250000238418579 39 40 32
0.12405963987112045 0.0039251199923455715 0.7250000238418579 38 39 31
0.12506531178951263 0.003919706214219332 0.7240000367164612 38 39 31
0.12624211609363556 0.003919706214219332 0.7240000367164612 39 40 32
0.12741892039775848 0.003919706214219332 0.7240000367164612 40 41 33
0.12841808795928955 0.003914291970431805 0.7230000495910645 39 42 34
0.12959326803684235 0.003914291970431805 0.7230000495910645 40 43 35
0.13076843321323395 0.003914291970431805 0.7230000495910645 41 44 36
0.13194361329078674 0.003914291970431805 0.7230000495910645 41 44 36
0.13293465971946716 0.003908878192305565 0.7220000624656677 43 46 38
0.13410820066928864 0.003908878192305565 0.7220000624656677 45 48 40
0.1352817565202713 0.003908878192305565 0.7220000624656677 51 51 40
0.13607729971408844 0.003898050170391798 0.7200000286102295 56 56 45
0.13724760711193085 0.003898050170391798 0.7200000286102295 66 61 51
0.13822564482688904 0.0038926361594349146 0.7190000414848328 74 69 59
0.13920044898986816 0.003887222381308675 0.718000054359436 78 69 51
0.14036749303340912 0.003887222381308675 0.718000054359436 190 181 163
0.14153453707695007 0.003887222381308675 0.718000054359436 192 189 167
0.1425028294324875 0.0038818081375211477 0.7170000076293945 196 193 171
0.14366823434829712 0.0038818081375211477 0.7170000076293945 193 190 173
0.14483365416526794 0.0038818081375211477 0.7170000076293945 194 191 174
0.14599907398223877 0.0038818081375211477 0.7170000076293945 194 191 174
0.14695924520492554 0.003876394359394908 0.7160000205039978 194 191 174
0.14791616797447205 0.0038709803484380245 0.7150000333786011 194 191 174
0.1490783393383026 0.0038709803484380245 0.7150000333786011 194 191 174
0.15003037452697754 0.0038655665703117847 0.7140000462532043 195 192 175
0.15119092166423798 0.0038655665703117847 0.7140000462532043 195 192 175
0.1523514688014984 0.0038655665703117847 0.7140000462532043 195 192 175
0.15351201593875885 0.0038655665703117847 0.7140000462532043 195 192 175
0.1546725481748581 0.0038655665703117847 0.7140000462532043 195 192 175
0.15583309531211853 0.0038655665703117847 0.7140000462532043 195 192 175
0.15677376091480255 0.0038601525593549013 0.7130000591278076 196 193 176
0.15793266892433167 0.0038601525593549013 0.7130000591278076 196 193 176
0.15909159183502197 0.0038601525593549013 0.7130000591278076 195 192 175
0.16047526895999908 0.0038655665703117847 0.7140000462532043 194 191 174
0.16163580119609833 0.0038655665703117847 0.7140000462532043 194 191 174
0.16279634833335876 0.0038655665703117847 0.7140000462532043 193 190 173
0.1639568954706192 0.0038655665703117847 0.7140000462532043 193 190 173
0.16511744260787964 0.0038655665703117847 0.7140000462532043 191 188 171
0.16627797484397888 0.0038655665703117847 0.7140000462532043 168 164 152
0.16743852198123932 0.0038655665703117847 0.7140000462532043 56 52 40
0.16859906911849976 0.0038655665703117847 0.7140000462532043 58 52 50
0.169759601354599 0.0038655665703117847 0.7140000462532043 54 48 46
0.17092014849185944 0.0038655665703117847 0.7140000462532043 52 50 44
0.17183968424797058 0.0038601525593549013 0.7130000591278076 51 49 43
0.1729985922574997 0.0038601525593549013 0.7130000591278076 50 48 42
0.17415751516819 0.0038601525593549013 0.7130000591278076 51 49 43
0.1753164380788803 0.0038601525593549013 0.7130000591278076 51 49 43
0.17647536098957062 0.0038601525593549013 0.7130000591278076 50 48 42
0.17763426899909973 0.0038601525593549013 0.7130000591278076 49 47 41
0.17879317700862885 0.0038601525593549013 0.7130000591278076 49 47 41
0.17995209991931915 0.0038601525593549013 0.7130000591278076 47 47 41
0.18085700273513794 0.0038547383155673742 0.7120000123977661 47 47 41
0.18201428651809692 0.0038547383155673742 0.7120000123977661 47 48 40
0.1831715852022171 0.0038547383155673742 0.7120000123977661 47 48 40
0.18432888388633728 0.0038547383155673742 0.7120000123977661 50 49 41
0.18548615276813507 0.0038547383155673742 0.7120000123977661 50 49 41
0.18664345145225525 0.0038547383155673742 0.7120000123977661 53 49 42
0.18780075013637543 0.0038547383155673742 0.7120000123977661 58 54 47
0.18869264423847198 0.0038493245374411345 0.7110000252723694 60 57 47
0.18984831869602203 0.0038493245374411345 0.7110000252723694 65 62 52
0.19100399315357208 0.0038493245374411345 0.7110000252723694 77 68 57
0.19215965270996094 0.0038493245374411345 0.7110000252723694 80 71 60
0.1933153122663498 0.0038493245374411345 0.7110000252723694 119 110 97
0.19419747591018677 0.003843910526484251 0.7100000381469727 208 199 186
0.1950763761997223 0.0038384967483580112 0.7090000510215759 198 194 180
0.1962287724018097 0.0038384967483580112 0.7090000510215759 198 194 180
0.19710280001163483 0.003833082504570484 0.7080000042915344 200 196 182
0.1982535868883133 0.003833082504570484 0.7080000042915344 201 197 183
0.19940435886383057 0.003833082504570484 0.7080000042915344 201 197 183
0.20055516064167023 0.003833082504570484 0.7080000042915344 201 197 183
0.2017059624195099 0.003833082504570484 0.7080000042915344 200 196 182
0.20257024466991425 0.0038276687264442444 0.7070000171661377 201 197 183
0.20343124866485596 0.003822254715487361 0.706000030040741 201 197 183
0.20457878708839417 0.003822254715487361 0.706000030040741 201 197 183
0.20572634041309357 0.003822254715487361 0.706000030040741 201 197 183
0.20687386393547058 0.003822254715487361 0.706000030040741 201 197 183
0.2080214023590088 0.003822254715487361 0.706000030040741 201 197 183
0.2091689556837082 0.003822254715487361 0.706000030040741 202 198 184
0.2103164792060852 0.003822254715487361 0.706000030040741 201 197 183
0.2114640176296234 0.003822254715487361 0.706000030040741 201 197 183
0.21291270852088928 0.0038276687264442444 0.7070000171661377 202 198 184
0.2143646627664566 0.003833082504570484 0.7080000042915344 201 197 183
0.21551543474197388 0.003833082504570484 0.7080000042915344 201 197 183
0.21666622161865234 0.003833082504570484 0.7080000042915344 201 197 183
0.217817023396492 0.003833082504570484 0.7080000042915344 200 196 182
0.21865852177143097 0.0038276687264442444 0.7070000171661377 198 194 180
0.2198076993227005 0.0038276687264442444 0.7070000171661377 207 200 195
0.22095686197280884 0.0038276687264442444 0.7070000171661377 92 85 80
0.22210602462291718 0.0038276687264442444 0.7070000171661377 67 58 60
0.2232551872730255 0.0038276687264442444 0.7070000171661377 66 57 59
0.2240869551897049 0.003822254715487361 0.706000030040741 59 58 55
0.2252345085144043 0.003822254715487361 0.706000030040741 59 58 55
0.2260613739490509 0.003816840937361121 0.7050000429153442 54 56 50
0.22720730304718018 0.003816840937361121 0.7050000429153442 55 57 51
0.22835321724414825 0.003816840937361121 0.7050000429153442 57 59 53
0.22949911653995514 0.003816840937361121 0.7050000429153442 55 57 51
0.2306450456380844 0.003816840937361121 0.7050000429153442 57 57 51
0.23146218061447144 0.0038114269264042377 0.7040000557899475 56 56 50
0.2326064556837082 0.0038114269264042377 0.7040000557899475 55 55 49
0.23375074565410614 0.0038114269264042377 0.7040000557899475 55 55 49
0.23489505052566528 0.0038114269264042377 0.7040000557899475 56 56 50
0.23603934049606323 0.0038114269264042377 0.7040000557899475 56 56 50
0.2371836155653 0.0038114269264042377 0.7040000557899475 55 55 49
0.2379893660545349 0.0038060126826167107 0.703000009059906 56 56 50
0.23913203179836273 0.0038060126826167107 0.703000009059906 58 55 52
0.24027468264102936 0.0038060126826167107 0.703000009059906 59 56 53
0.24141734838485718 0.0038060126826167107 0.703000009059906 61 58 55
0.242560014128685 0.0038060126826167107 0.703000009059906 61 58 55
0.24335600435733795 0.003800598904490471 0.7020000219345093 65 62 59
0.24449706077575684 0.003800598904490471 0.7020000219345093 69 66 63
0.24563810229301453 0.003800598904490471 0.7020000219345093 82 73 68
0.24677914381027222 0.003800598904490471 0.7020000219345093 93 84 79
0.2479201704263687 0.003800598904490471 0.7020000219345093 208 204 192
0.2490612119436264 0.003800598904490471 0.7020000219345093 200 196 184
0.2502022385597229 0.003800598904490471 0.7020000219345093 200 198 186
0.2513432800769806 0.003800598904490471 0.7020000219345093 200 198 186
0.2524843215942383 0.003800598904490471 0.7020000219345093 200 198 186
0.25362536311149597 0.003800598904490471 0.7020000219345093 201 199 187
0.2547663748264313 0.003800598904490471 0.7020000219345093 201 199 187
0.25590741634368896 0.003800598904490471 0.7020000219345093 201 199 187
0.25704848766326904 0.003800598904490471 0.7020000219345093 201 199 187
0.25818952918052673 0.003800598904490471 0.7020000219345093 201 199 187
0.25933054089546204 0.003800598904490471 0.7020000219345093 201 199 187
0.2604715824127197 0.003800598904490471 0.7020000219345093 201 199 187
0.2616126239299774 0.003800598904490471 0.7020000219345093 201 199 187
0.2627536654472351 0.003800598904490471 0.7020000219345093 201 199 187
0.2638947069644928 0.003800598904490471 0.7020000219345093 202 200 186
0.26465821266174316 0.0037951848935335875 0.7010000348091125 202 200 186
0.26579758524894714 0.0037951848935335875 0.7010000348091125 201 199 185
0.2665562331676483 0.0037897711154073477 0.7000000476837158 201 199 185
0.26731160283088684 0.0037843571044504642 0.6990000605583191 201 199 187
0.26844778656959534 0.0037843571044504642 0.6990000605583191 201 199 187
0.2691982388496399 0.003778943093493581 0.6980000138282776 199 197 185
0.27033278346061707 0.003778943093493581 0.6980000138282776 199 197 185
0.2710784077644348 0.0037735290825366974 0.6970000267028809 199 197 185
0.2722112834453583 0.0037735290825366974 0.6970000267028809 196 194 182
0.2733442187309265 0.0037735290825366974 0.6970000267028809 207 199 192
0.27408334612846375 0.0037681153044104576 0.6960000395774841 105 97 90
0.27521461248397827 0.0037681153044104576 0.6960000395774841 87 70 67
0.2763459086418152 0.0037681153044104576 0.6960000395774841 77 60 57
0.2774771749973297 0.0037681153044104576 0.6960000395774841 68 58 56
0.2786084711551666 0.0037681153044104576 0.6960000395774841 67 57 55
0.27973973751068115 0.0037681153044104576 0.6960000395774841 59 55 56
0.28087103366851807 0.0037681153044104576 0.6960000395774841 59 55 56
0.282002329826355 0.0037681153044104576 0.6960000395774841 58 54 54
0.2831335961818695 0.0037681153044104576 0.6960000395774841 58 54 54
0.2842648923397064 0.0037681153044104576 0.6960000395774841 58 55 52
0.28498613834381104 0.003762701293453574 0.6950000524520874 59 56 53
0.2861157953739166 0.003762701293453574 0.6950000524520874 59 55 55
0.2872454524040222 0.003762701293453574 0.6950000524520874 61 57 57
0.2879601716995239 0.003757287049666047 0.6940000057220459 57 55 55
0.2890882194042206 0.003757287049666047 0.6940000057220459 56 54 54
0.2897980511188507 0.0037518732715398073 0.6930000185966492 57 55 56
0.29050466418266296 0.003746459260582924 0.6920000314712524 57 55 56
0.29162946343421936 0.003746459260582924 0.6920000314712524 57 55 56
0.29275423288345337 0.003746459260582924 0.6920000314712524 57 55 56
0.29387903213500977 0.003746459260582924 0.6920000314712524 55 53 54
0.2950038015842438 0.003746459260582924 0.6920000314712524 54 52 53
0.2961285710334778 0.003746459260582924 0.6920000314712524 59 57 57
0.2972533702850342 0.003746459260582924 0.6920000314712524 60 58 58
0.2979469895362854 0.003741045482456684 0.6910000443458557 65 62 59
0.2990701496601105 0.003741045482456684 0.6910000443458557 58 55 52
0.30019327998161316 0.003741045482456684 0.6910000443458557 149 145 138
0.3013164699077606 0.003741045482456684 0.6910000443458557 201 197 190
0.302001953125 0.0037356314714998007 0.690000057220459 192 192 181
0.30312347412109375 0.0037356314714998007 0.690000057220459 194 194 183
0.30380403995513916 0.0037302174605429173 0.6890000104904175 196 196 185
0.304923951625824 0.0037302174605429173 0.6890000104904175 197 197 186
0.3060438632965088 0.0037302174605429173 0.6890000104904175 198 195 185
0.3071637749671936 0.0037302174605429173 0.6890000104904175 199 196 186
0.3082836866378784 0.0037302174605429173 0.6890000104904175 199 196 186
0.30940359830856323 0.0037302174605429173 0.6890000104904175 200 197 187
0.31052348017692566 0.0037302174605429173 0.6890000104904175 200 197 187
0.3111910820007324 0.003724803449586034 0.6880000233650208 200 197 187
0.3123093843460083 0.003724803449586034 0.6880000233650208 198 199 186
0.3134276568889618 0.003724803449586034 0.6880000233650208 199 200 187
0.3145459294319153 0.003724803449586034 0.6880000233650208 198 199 186
0.31566423177719116 0.003724803449586034 0.6880000233650208 200 201 188
0.31678250432014465 0.003724803449586034 0.6880000233650208 199 199 188
0.3174387216567993 0.003719389671459794 0.687000036239624 199 199 188
0.31855538487434387 0.003719389671459794 0.687000036239624 199 199 188
0.3196720480918884 0.003719389671459794 0.687000036239624 199 199 188
0.3203217387199402 0.0037139756605029106 0.6860000491142273 200 200 189
0.3214367926120758 0.0037139756605029106 0.6860000491142273 200 200 189
0.32255181670188904 0.0037139756605029106 0.6860000491142273 200 200 189
0.32366684079170227 0.0037139756605029106 0.6860000491142273 200 200 189
0.3247818946838379 0.0037139756605029106 0.6860000491142273 203 200 190
0.32542186975479126 0.003708561882376671 0.6850000619888306 203 200 190
0.32653525471687317 0.003708561882376671 0.6850000619888306 205 202 192
0.32717031240463257 0.0037031476385891438 0.6840000152587891 205 202 192
0.3278021514415741 0.0036977336276322603 0.6830000281333923 205 202 192
0.32891231775283813 0.0036977336276322603 0.6830000281333923 206 203 193
0.3295392692089081 0.0036923198495060205 0.6820000410079956 207 203 196
0.3306478261947632 0.0036923198495060205 0.6820000410079956 205 201 194
0.3317563533782959 0.0036923198495060205 0.6820000410079956 205 201 194
0.3328648507595062 0.0036923198495060205 0.6820000410079956 205 201 194
0.33397340774536133 0.0036923198495060205 0.6820000410079956 201 198 195
0.07928615808486938 0.005180745851248503 0.7360000610351562 192 190 178
0.08048246800899506 0.005180745851248503 0.7360000610351562 188 185 168
0.08167877048254013 0.005180745851248503 0.7360000610351562 189 186 169
0.0828750729560852 0.005180745851248503 0.7360000610351562 190 187 170
0.08407136797904968 0.005180745851248503 0.7360000610351562 189 186 169
0.08515181392431259 0.005173706449568272 0.7350000143051147 189 186 169
0.08622901141643524 0.005166667513549328 0.734000027179718 189 186 169
0.08742206543684006 0.005166667513549328 0.734000027179718 189 186 169
0.08837366104125977 0.00515258964151144 0.7320000529289246 189 186 169
0.08956345915794373 0.00515258964151144 0.7320000529289246 189 186 169
0.09075325727462769 0.00515258964151144 0.7320000529289246 189 186 169
0.09169183671474457 0.005138511303812265 0.7300000190734863 189 186 169
0.09287839382886887 0.005138511303812265 0.7300000190734863 190 187 170
0.09406493604183197 0.005138511303812265 0.7300000190734863 189 186 169
0.09525149315595627 0.005138511303812265 0.7300000190734863 189 186 169
0.09643804281949997 0.005138511303812265 0.7300000190734863 189 187 168
0.09749085456132889 0.005131472367793322 0.7290000319480896 190 188 169
0.09867578744888306 0.005131472367793322 0.7290000319480896 190 188 169
0.09986070543527603 0.005131472367793322 0.7290000319480896 190 188 169
0.1010456308722496 0.005131472367793322 0.7290000319480896 190 188 169
0.10223055630922318 0.005131472367793322 0.7290000319480896 190 188 169
0.10327361524105072 0.005124433431774378 0.7280000448226929 190 188 169
0.10445691645145416 0.005124433431774378 0.7280000448226929 190 188 169
0.10564021021127701 0.005124433431774378 0.7280000448226929 190 188 169
0.10682351887226105 0.005124433431774378 0.7280000448226929 190 188 169
0.10800681263208389 0.005124433431774378 0.7280000448226929 188 186 167
0.10919010639190674 0.005124433431774378 0.7280000448226929 188 186 167
0.11022180318832397 0.005117394030094147 0.7270000576972961 188 186 167
0.11140347272157669 0.005117394030094147 0.7270000576972961 186 184 165
0.11258514970541 0.005117394030094147 0.7270000576972961 181 180 163
0.11376681923866272 0.005117394030094147 0.7270000576972961 187 186 169
0.11479036509990692 0.005110354628413916 0.7260000109672546 48 46 40
0.1159704178571701 0.005110354628413916 0.7260000109672546 41 39 33
0.11715046316385269 0.005110354628413916 0.7260000109672546 40 38 32
0.11833051592111588 0.005110354628413916 0.7260000109672546 38 36 30
0.11934594810009003 0.005103315692394972 0.7250000238418579 36 36 30
0.12052437663078308 0.005103315692394972 0.7250000238418579 38 38 32
0.12170279026031494 0.005103315692394972 0.7250000238418579 36 38 32
0.1228812113404274 0.005103315692394972 0.7250000238418579 36 38 32
0.12405963987112045 0.005103315692394972 0.7250000238418579 34 36 30
0.12506531178951263 0.005096276756376028 0.7240000367164612 36 38 32
0.12624211609363556 0.005096276756376028 0.7240000367164612 36 38 32
0.12741892039775848 0.005096276756376028 0.7240000367164612 36 38 32
0.12841808795928955 0.005089237820357084 0.7230000495910645 38 40 34
0.12959326803684235 0.005089237820357084 0.7230000495910645 39 41 35
0.13076843321323395 0.005089237820357084 0.7230000495910645 40 42 36
0.13194361329078674 0.005089237820357084 0.7230000495910645 40 42 36
0.13293465971946716 0.0050821988843381405 0.7220000624656677 41 44 36
0.13392244279384613 0.005075159482657909 0.7210000157356262 44 47 39
0.13509437441825867 0.005075159482657909 0.7210000157356262 50 50 39
0.13607729971408844 0.005068120546638966 0.7200000286102295 55 55 44
0.13724760711193085 0.005068120546638966 0.7200000286102295 66 62 50
0.13822564482688904 0.005061081610620022 0.7190000414848328 73 69 57
0.13920044898986816 0.005054042674601078 0.718000054359436 78 69 51
0.14036749303340912 0.005054042674601078 0.718000054359436 192 183 165
0.14133739471435547 0.005047003272920847 0.7170000076293945 192 189 167
0.1425028294324875 0.005047003272920847 0.7170000076293945 196 193 171
0.14366823434829712 0.005047003272920847 0.7170000076293945 193 190 173
0.14483365416526794 0.005047003272920847 0.7170000076293945 194 191 174
0.14599907398223877 0.005047003272920847 0.7170000076293945 195 192 175
0.14695924520492554 0.005039964336901903 0.7160000205039978 194 191 174
0.14791616797447205 0.005032925400882959 0.7150000333786011 194 191 174
0.1490783393383026 0.005032925400882959 0.7150000333786011 194 191 174
0.15003037452697754 0.005025886464864016 0.7140000462532043 195 192 175
0.1509791761636734 0.005018847528845072 0.7130000591278076 195 192 175
0.15213808417320251 0.005018847528845072 0.7130000591278076 195 192 175
0.15329700708389282 0.005018847528845072 0.7130000591278076 195 192 175
0.15445592999458313 0.005018847528845072 0.7130000591278076 195 192 175
0.15561483800411224 0.005018847528845072 0.7130000591278076 195 192 175
0.15677376091480255 0.005018847528845072 0.7130000591278076 196 193 176
0.15793266892433167 0.005018847528845072 0.7130000591278076 195 192 175
0.15909159183502197 0.005018847528845072 0.7130000591278076 195 192 175
0.16025051474571228 0.005018847528845072 0.7130000591278076 194 191 174
0.1614094227552414 0.005018847528845072 0.7130000591278076 194 191 174
0.1625683456659317 0.005018847528845072 0.7130000591278076 193 190 173
0.163727268576622 0.005018847528845072 0.7130000591278076 193 190 173
0.16488619148731232 0.005018847528845072 0.7130000591278076 191 188 171
0.16604509949684143 0.005018847528845072 0.7130000591278076 167 163 151
0.16720400750637054 0.005018847528845072 0.7130000591278076 54 50 38
0.16836293041706085 0.005018847528845072 0.7130000591278076 57 51 49
0.16952185332775116 0.005018847528845072 0.7130000591278076 53 47 45
0.17068077623844147 0.005018847528845072 0.7130000591278076 50 48 42
0.17183968424797058 0.005018847528845072 0.7130000591278076 50 48 42
0.1729985922574997 0.005018847528845072 0.7130000591278076 49 47 41
0.17415751516819 0.005018847528845072 0.7130000591278076 49 47 41
0.1753164380788803 0.005018847528845072 0.7130000591278076 49 47 41
0.17647536098957062 0.005018847528845072 0.7130000591278076 48 46 40
0.17763426899909973 0.005018847528845072 0.7130000591278076 48 46 40
0.17879317700862885 0.005018847528845072 0.7130000591278076 48 46 40
0.17995209991931915 0.005018847528845072 0.7130000591278076 46 46 40
0.18111103773117065 0.005018847528845072 0.7130000591278076 46 46 40
0.18226993083953857 0.005018847528845072 0.7130000591278076 46 47 39
0.18342885375022888 0.005018847528845072 0.7130000591278076 47 48 40
0.18432888388633728 0.005011808127164841 0.7120000123977661 50 49 41
0.18548615276813507 0.005011808127164841 0.7120000123977661 49 48 40
0.18664345145225525 0.005011808127164841 0.7120000123977661 53 49 42
0.18780075013637543 0.005011808127164841 0.7120000123977661 58 54 47
0.18869264423847198 0.005004769191145897 0.7110000252723694 60 58 46
0.18984831869602203 0.005004769191145897 0.7110000252723694 65 63 51
0.19100399315357208 0.005004769191145897 0.7110000252723694 77 68 57
0.19215965270996094 0.005004769191145897 0.7110000252723694 79 70 59
0.1933153122663498 0.005004769191145897 0.7110000252723694 121 111 95
0.19419747591018677 0.004997730255126953 0.7100000381469727 211 201 185
0.1950763761997223 0.004990691319108009 0.7090000510215759 198 195 178
0.1962287724018097 0.004990691319108009 0.7090000510215759 200 197 180
0.19710280001163483 0.004983651917427778 0.7080000042915344 200 196 182
0.1982535868883133 0.004983651917427778 0.7080000042915344 201 197 183
0.19940435886383057 0.004983651917427778 0.7080000042915344 201 197 183
0.20055516064167023 0.004983651917427778 0.7080000042915344 201 197 183
0.2017059624195099 0.004983651917427778 0.7080000042915344 201 197 183
0.20257024466991425 0.0049766129814088345 0.7070000171661377 200 196 182
0.20343124866485596 0.004969574045389891 0.706000030040741 201 197 183
0.20457878708839417 0.004969574045389891 0.706000030040741 202 198 184
0.20572634041309357 0.004969574045389891 0.706000030040741 202 198 184
0.20687386393547058 0.004969574045389891 0.706000030040741 202 198 184
0.2080214023590088 0.004969574045389891 0.706000030040741 202 198 184
0.2091689556837082 0.004969574045389891 0.706000030040741 202 198 184
0.2103164792060852 0.004969574045389891 0.706000030040741 201 197 183
0.2114640176296234 0.004969574045389891 0.706000030040741 201 197 183
0.21291270852088928 0.0049766129814088345 0.7070000171661377 202 198 184
0.2143646627664566 0.004983651917427778 0.7080000042915344 201 197 183
0.21551543474197388 0.004983651917427778 0.7080000042915344 200 196 182
0.21666622161865234 0.004983651917427778 0.7080000042915344 200 196 182
0.217817023396492 0.004983651917427778 0.7080000042915344 200 196 182
0.21865852177143097 0.0049766129814088345 0.7070000171661377 198 194 180
0.2198076993227005 0.0049766129814088345 0.7070000171661377 205 198 193
0.22095686197280884 0.0049766129814088345 0.7070000171661377 91 84 79
0.22210602462291718 0.0049766129814088345 0.7070000171661377 65 56 58
0.2232551872730255 0.0049766129814088345 0.7070000171661377 63 54 56
0.2240869551897049 0.004969574045389891 0.706000030040741 55 54 51
0.2252345085144043 0.004969574045389891 0.706000030040741 55 54 51
0.2260613739490509 0.004962535109370947 0.7050000429153442 55 55 49
0.22720730304718018 0.004962535109370947 0.7050000429153442 55 55 49
0.22835321724414825 0.004962535109370947 0.7050000429153442 55 56 48
0.22949911653995514 0.004962535109370947 0.7050000429153442 55 56 48
0.2306450456380844 0.004962535109370947 0.7050000429153442 54 54 48
0.23146218061447144 0.004955495707690716 0.7040000557899475 55 55 49
0.2326064556837082 0.004955495707690716 0.7040000557899475 54 54 48
0.23375074565410614 0.004955495707690716 0.7040000557899475 53 53 47
0.23489505052566528 0.004955495707690716 0.7040000557899475 54 54 48
0.23570404946804047 0.004948456771671772 0.703000009059906 54 54 48
0.2368466854095459 0.004948456771671772 0.703000009059906 55 53 47
0.2376508265733719 0.004941417369991541 0.7020000219345093 56 54 48
0.23879188299179077 0.004941417369991541 0.7020000219345093 57 55 49
0.23993289470672607 0.004941417369991541 0.7020000219345093 58 56 50
0.24107393622398376 0.004941417369991541 0.7020000219345093 59 56 53
0.24221499264240265 0.004941417369991541 0.7020000219345093 59 56 53
0.24335600435733795 0.004941417369991541 0.7020000219345093 64 61 58
0.24414877593517303 0.004934378433972597 0.7010000348091125 68 65 62
0.2452881932258606 0.004934378433972597 0.7010000348091125 82 74 67
0.24642761051654816 0.004934378433972597 0.7010000348091125 92 84 77
0.24756701290607452 0.004934378433972597 0.7010000348091125 207 203 191
0.24870643019676208 0.004934378433972597 0.7010000348091125 200 196 184
0.24984584748744965 0.004934378433972597 0.7010000348091125 200 198 186
0.2509852349758148 0.004934378433972597 0.7010000348091125 201 199 187
0.2521246671676636 0.004934378433972597 0.7010000348091125 200 198 186
0.25326406955718994 0.004934378433972597 0.7010000348091125 201 199 187
0.2544034719467163 0.004934378433972597 0.7010000348091125 201 199 187
0.25554290413856506 0.004934378433972597 0.7010000348091125 202 200 188
0.25668230652809143 0.004934378433972597 0.7010000348091125 202 200 188
0.2578217387199402 0.004934378433972597 0.7010000348091125 202 200 188
0.25896114110946655 0.004934378433972597 0.7010000348091125 201 199 187
0.2601005434989929 0.004934378433972597 0.7010000348091125 201 199 187
0.2612399756908417 0.004934378433972597 0.7010000348091125 201 199 187
0.26237937808036804 0.004934378433972597 0.7010000348091125 201 199 187
0.2635187804698944 0.004934378433972597 0.7010000348091125 202 200 186
0.26428067684173584 0.004927339497953653 0.7000000476837158 203 201 187
0.2654184401035309 0.004927339497953653 0.7000000476837158 202 200 186
0.2665562331676483 0.004927339497953653 0.7000000476837158 201 199 185
0.26692917943000793 0.0049132611602544785 0.6980000138282776 201 199 187
0.2680637240409851 0.0049132611602544785 0.6980000138282776 201 199 187
0.2688125669956207 0.004906222224235535 0.6970000267028809 200 198 186
0.2699454724788666 0.004906222224235535 0.6970000267028809 200 198 186
0.2710784077644348 0.004906222224235535 0.6970000267028809 199 197 185
0.2718207538127899 0.004899183288216591 0.6960000395774841 198 196 184
0.27295204997062683 0.004899183288216591 0.6960000395774841 208 202 195
0.27408334612846375 0.004899183288216591 0.6960000395774841 104 98 91
0.27521461248397827 0.004899183288216591 0.6960000395774841 83 67 62
0.2763459086418152 0.004899183288216591 0.6960000395774841 75 59 54
0.2774771749973297 0.004899183288216591 0.6960000395774841 65 56 51
0.2786084711551666 0.004899183288216591 0.6960000395774841 63 54 49
0.2793378233909607 0.004892144352197647 0.6950000524520874 57 53 54
0.28046751022338867 0.004892144352197647 0.6950000524520874 56 52 53
0.282002329826355 0.004899183288216591 0.6960000395774841 54 50 50
0.28272682428359985 0.004892144352197647 0.6950000524520874 56 52 52
0.28385648131370544 0.004892144352197647 0.6950000524520874 56 52 52
0.28498613834381104 0.004892144352197647 0.6950000524520874 55 51 51
0.2857040762901306 0.004885104950517416 0.6940000057220459 54 52 52
0.28683212399482727 0.004885104950517416 0.6940000057220459 55 53 53
0.2879601716995239 0.004885104950517416 0.6940000057220459 54 52 52
0.28867167234420776 0.004878066014498472 0.6930000185966492 54 52 52
0.2897980511188507 0.004878066014498472 0.6930000185966492 52 52 53
0.29050466418266296 0.004871027078479528 0.6920000314712524 52 52 53
0.29162946343421936 0.004871027078479528 0.6920000314712524 51 51 52
0.29275423288345337 0.004871027078479528 0.6920000314712524 51 51 52
0.29387903213500977 0.004871027078479528 0.6920000314712524 52 50 50
0.2950038015842438 0.004871027078479528 0.6920000314712524 52 50 50
0.2961285710334778 0.004871027078479528 0.6920000314712524 55 53 53
0.2972533702850342 0.004871027078479528 0.6920000314712524 56 54 54
0.2979469895362854 0.004863988142460585 0.6910000443458557 63 60 57
0.2990701496601105 0.004863988142460585 0.6910000443458557 57 54 51
0.30019327998161316 0.004863988142460585 0.6910000443458557 147 142 132
0.30088040232658386 0.004856949206441641 0.690000057220459 201 196 186
0.3015642464160919 0.00484990980476141 0.6890000104904175 193 194 181
0.30268412828445435 0.00484990980476141 0.6890000104904175 196 197 184
0.30380403995513916 0.00484990980476141 0.6890000104904175 196 196 185
0.304923951625824 0.00484990980476141 0.6890000104904175 197 197 186
0.3060438632965088 0.00484990980476141 0.6890000104904175 199 196 186
0.3071637749671936 0.00484990980476141 0.6890000104904175 199 196 186
0.3082836866378784 0.00484990980476141 0.6890000104904175 199 196 186
0.30895453691482544 0.004842870868742466 0.6880000233650208 200 197 187
0.31007280945777893 0.004842870868742466 0.6880000233650208 200 197 187
0.3111910820007324 0.004842870868742466 0.6880000233650208 200 197 187
0.3123093843460083 0.004842870868742466 0.6880000233650208 200 197 187
0.3134276568889618 0.004842870868742466 0.6880000233650208 201 198 188
0.3145459294319153 0.004842870868742466 0.6880000233650208 199 199 188
0.31566423177719116 0.004842870868742466 0.6880000233650208 200 200 189
0.31678250432014465 0.004842870868742466 0.6880000233650208 200 200 189
0.3174387216567993 0.004835831932723522 0.687000036239624 200 200 189
0.31855538487434387 0.004835831932723522 0.687000036239624 200 200 189
0.3196720480918884 0.004835831932723522 0.687000036239624 199 199 188
0.3203217387199402 0.004828792996704578 0.6860000491142273 200 200 189
0.3214367926120758 0.004828792996704578 0.6860000491142273 201 201 190
0.32255181670188904 0.004828792996704578 0.6860000491142273 201 200 192
0.32366684079170227 0.004828792996704578 0.6860000491142273 201 200 192
0.3247818946838379 0.004828792996704578 0.6860000491142273 203 200 190
0.32542186975479126 0.004821754060685635 0.6850000619888306 203 200 190
0.32653525471687317 0.004821754060685635 0.6850000619888306 205 202 192
0.32717031240463257 0.0048147146590054035 0.6840000152587891 205 202 192
0.3278021514415741 0.00480767572298646 0.6830000281333923 205 202 192
0.32891231775283813 0.00480767572298646 0.6830000281333923 206 203 193
0.3295392692089081 0.004800636786967516 0.6820000410079956 206 203 193
0.3306478261947632 0.004800636786967516 0.6820000410079956 205 202 192
0.3317563533782959 0.004800636786967516 0.6820000410079956 206 202 195
0.3328648507595062 0.004800636786967516 0.6820000410079956 206 202 195
0.33397340774536133 0.004800636786967516 0.6820000410079956 205 199 197
0.07928615808486938 0.0063768173567950726 0.7360000610351562 188 186 174
0.08048246800899506 0.0063768173567950726 0.7360000610351562 186 185 168
0.08167877048254013 0.0063768173567950726 0.7360000610351562 187 186 169
0.0828750729560852 0.0063768173567950726 0.7360000610351562 189 186 169
0.08407136797904968 0.0063768173567950726 0.7360000610351562 189 186 169
0.08515181392431259 0.0063681527972221375 0.7350000143051147 189 186 169
0.08622901141643524 0.00635948870331049 0.734000027179718 189 186 169
0.08742206543684006 0.00635948870331049 0.734000027179718 189 186 169
0.08837366104125977 0.006342160981148481 0.7320000529289246 190 187 170
0.08944109827280045 0.006333496421575546 0.7310000061988831 189 186 169
0.09062927216291428 0.006333496421575546 0.7310000061988831 189 186 169
0.09169183671474457 0.0063248323276638985 0.7300000190734863 189 186 169
0.09287839382886887 0.0063248323276638985 0.7300000190734863 190 187 170
0.09393608570098877 0.006316168233752251 0.7290000319480896 189 186 169
0.09512101858854294 0.006316168233752251 0.7290000319480896 189 186 169
0.09630593657493591 0.006316168233752251 0.7290000319480896 189 186 169
0.09749085456132889 0.006316168233752251 0.7290000319480896 190 187 170
0.09867578744888306 0.006316168233752251 0.7290000319480896 190 187 170
0.09972371906042099 0.006307504139840603 0.7280000448226929 189 186 169
0.10090702772140503 0.006307504139840603 0.7280000448226929 190 187 170
0.10209032148122787 0.006307504139840603 0.7280000448226929 190 187 170
0.10313175618648529 0.006298840045928955 0.7270000576972961 190 188 169
0.1043134406208992 0.006298840045928955 0.7270000576972961 190 188 169
0.10549510270357132 0.006298840045928955 0.7270000576972961 190 188 169
0.10653004050254822 0.00629017548635602 0.7260000109672546 189 187 168
0.1077100858092308 0.00629017548635602 0.7260000109672546 189 187 168
0.10889013111591339 0.00629017548635602 0.7260000109672546 188 186 167
0.11007018387317657 0.00629017548635602 0.7260000109672546 188 186 167
0.11125022917985916 0.00629017548635602 0.7260000109672546 186 184 165
0.11243028193712234 0.00629017548635602 0.7260000109672546 182 181 164
0.11361031979322433 0.00629017548635602 0.7260000109672546 185 184 167
0.11479036509990692 0.00629017548635602 0.7260000109672546 45 43 37
0.11581068485975266 0.006281511392444372 0.7250000238418579 41 39 33
0.11698909848928452 0.006281511392444372 0.7250000238418579 38 36 30
0.11816752701997757 0.006281511392444372 0.7250000238418579 37 35 29
0.11934594810009003 0.006281511392444372 0.7250000238418579 35 35 29
0.12052437663078308 0.006281511392444372 0.7250000238418579 36 36 30
0.12170279026031494 0.006281511392444372 0.7250000238418579 36 38 32
0.1228812113404274 0.006281511392444372 0.7250000238418579 34 36 30
0.1238885223865509 0.006272847298532724 0.7240000367164612 34 36 30
0.12506531178951263 0.006272847298532724 0.7240000367164612 34 36 30
0.12624211609363556 0.006272847298532724 0.7240000367164612 34 36 30
0.12724292278289795 0.006264183204621077 0.7230000495910645 36 38 32
0.12841808795928955 0.006264183204621077 0.7230000495910645 37 39 33
0.12959326803684235 0.006264183204621077 0.7230000495910645 38 40 34
0.13076843321323395 0.006264183204621077 0.7230000495910645 39 41 35
0.13194361329078674 0.006264183204621077 0.7230000495910645 39 41 35
0.13293465971946716 0.006255519576370716 0.7220000624656677 40 42 36
0.13392244279384613 0.006246855016797781 0.7210000157356262 44 46 40
0.13509437441825867 0.006246855016797781 0.7210000157356262 50 49 41
0.13607729971408844 0.006238190922886133 0.7200000286102295 55 54 46
0.13724760711193085 0.006238190922886133 0.7200000286102295 67 61 49
0.13822564482688904 0.006229526828974485 0.7190000414848328 74 68 56
0.13920044898986816 0.006220862735062838 0.718000054359436 78 69 51
0.14036749303340912 0.006220862735062838 0.718000054359436 192 183 165
0.14133739471435547 0.0062121981754899025 0.7170000076293945 192 189 167
0.1425028294324875 0.0062121981754899025 0.7170000076293945 195 192 170
0.14366823434829712 0.0062121981754899025 0.7170000076293945 194 191 174
0.14483365416526794 0.0062121981754899025 0.7170000076293945 194 191 174
0.14599907398223877 0.0062121981754899025 0.7170000076293945 195 192 175
0.14695924520492554 0.006203534081578255 0.7160000205039978 194 191 174
0.14791616797447205 0.006194869987666607 0.7150000333786011 194 191 174
0.1490783393383026 0.006194869987666607 0.7150000333786011 194 191 174
0.15003037452697754 0.006186205893754959 0.7140000462532043 195 192 175
0.1509791761636734 0.006177541799843311 0.7130000591278076 195 192 175
0.15213808417320251 0.006177541799843311 0.7130000591278076 195 192 175
